NCOLS 202
NROWS 49
XLLCORNER 76145
YLLCORNER 239185
CELLSIZE 30.000000
NODATA_VALUE -99999.000
-99999.000 -99999.000 -99999.000 -99999.000 -99999.000 -99999.000 -99999.000 -99999.000 -99999.000 -99999.000 -99999.000 -99999.000 -99999.000 -99999.000 -99999.000 -99999.000 -99999.000 -99999.000 -99999.000 -99999.000 -99999.000 -99999.000 -99999.000 -99999.000 1996.073 1971.372 1941.698 1926.310 1914.153 1902.857 1895.413 1884.244 1871.663 1861.235 1843.382 1825.771 1804.991 1789.083 1776.128 1758.168 1732.915 1697.603 1691.009 1697.540 1696.983 1695.764 1688.717 1676.409 1681.045 1671.457 1658.199 1647.521 1641.558 1628.104 1611.470 1595.149 1582.567 1583.741 1569.658 1558.400 1571.948 1583.268 1583.278 1580.834 1575.376 1567.456 1548.463 1527.927 1508.986 1489.119 1490.574 1490.646 1475.943 1459.837 1476.530 1487.902 1502.171 1507.228 1505.319 1498.221 1516.091 1534.073 1545.602 1547.308 1541.873 1536.347 1554.939 1574.603 1589.042 1600.561 1605.771 1612.622 1620.236 1626.245 1629.530 1631.373 1633.102 1632.919 1628.604 1623.058 1614.331 1615.153 1611.362 1608.384 1605.314 1583.301 1562.458 1545.357 1525.333 1500.060 1486.737 1473.773 1463.748 1457.103 1449.919 1448.768 1436.782 1429.834 1424.131 1415.587 1409.340 1403.246 1402.871 1414.231 1424.898 1426.771 1418.501 1403.380 1397.708 1409.561 1411.198 1405.217 1378.433 1361.916 1353.317 1355.868 1369.209 1369.517 1360.889 1341.182 1331.758 1340.781 1342.696 1340.706 1315.258 1290.861 1289.248 1294.062 1296.585 1282.540 1274.333 1251.017 1227.364 1209.100 1214.164 1218.520 1223.385 1221.474 1212.132 1194.598 1186.278 1172.086 1159.236 1168.314 1174.405 1172.564 1161.935 1148.936 1139.354 1135.491 1133.767 1129.978 1117.426 1109.133 1107.977 1103.947 1097.260 1089.911 1087.721 1075.736 -99999.000 -99999.000 -99999.000 -99999.000 -99999.000 -99999.000 -99999.000 -99999.000 -99999.000 -99999.000 -99999.000 -99999.000 -99999.000 -99999.000 -99999.000 -99999.000 -99999.000 -99999.000 -99999.000 -99999.000 -99999.000 -99999.000
-99999.000 -99999.000 -99999.000 -99999.000 -99999.000 -99999.000 -99999.000 -99999.000 -99999.000 -99999.000 -99999.000 -99999.000 -99999.000 -99999.000 -99999.000 -99999.000 -99999.000 -99999.000 -99999.000 -99999.000 -99999.000 -99999.000 -99999.000 -99999.000 -99999.000 1958.645 1935.129 1916.250 1899.797 1882.882 1873.417 1867.678 1860.620 1849.211 1839.866 1828.653 1810.813 1795.932 1777.440 1760.151 1723.052 1701.164 1680.834 1676.336 1667.423 1663.212 1652.089 1652.235 1671.411 1663.686 1648.882 1639.144 1635.790 1621.162 1605.676 1588.089 1567.609 1565.733 1557.936 1544.072 1554.596 1571.198 1574.395 1566.506 1561.332 1555.734 1541.194 1521.389 1506.451 1485.299 1475.750 1475.483 1460.228 1443.676 1461.122 1471.411 1484.950 1489.253 1488.884 1491.393 1510.728 1522.234 1530.537 1530.941 1531.254 1525.340 1545.582 1563.571 1577.703 1586.563 1590.624 1595.433 1600.636 1605.246 1608.586 1611.134 1613.375 1612.765 1607.529 1598.525 1590.402 1589.998 1586.439 1586.615 1587.574 1582.769 1566.601 1545.794 1525.425 1500.654 1480.725 1462.659 1450.556 1438.277 1431.442 1426.728 1423.055 1413.516 1407.210 1399.341 1394.360 1386.433 1385.859 1393.257 1402.976 1405.135 1398.568 1388.204 1386.238 1396.762 1398.524 1394.336 1370.797 1344.745 1335.873 1335.059 1343.564 1349.962 1346.204 1329.154 1312.438 1318.634 1323.574 1325.939 1312.427 1288.160 1267.773 1271.460 1275.635 1267.682 1263.454 1245.182 1221.594 1200.184 1193.267 1199.151 1206.020 1205.253 1195.009 1188.500 1173.642 1164.686 1147.542 1156.915 1163.530 1163.382 1153.354 1141.589 1133.553 1123.587 1123.048 1122.496 1116.059 1107.307 1098.252 1088.709 1091.196 1081.445 1079.864 1070.204 1058.893 -99999.000 -99999.000 -99999.000 -99999.000 -99999.000 -99999.000 -99999.000 -99999.000 -99999.000 -99999.000 -99999.000 -99999.000 -99999.000 -99999.000 -99999.000 -99999.000 -99999.000 -99999.000 -99999.000 -99999.000 -99999.000
-99999.000 -99999.000 -99999.000 -99999.000 -99999.000 -99999.000 -99999.000 -99999.000 -99999.000 -99999.000 -99999.000 -99999.000 -99999.000 -99999.000 -99999.000 -99999.000 -99999.000 -99999.000 -99999.000 -99999.000 -99999.000 -99999.000 -99999.000 -99999.000 -99999.000 1952.924 1928.907 1909.668 1891.308 1874.964 1859.049 1843.515 1841.672 1835.115 1826.696 1818.853 1808.900 1792.587 1775.172 1750.127 1716.197 1693.143 1664.325 1641.639 1628.341 1630.988 1631.139 1628.424 1655.919 1647.890 1641.963 1636.560 1630.111 1612.338 1593.064 1581.291 1560.132 1545.396 1545.602 1531.705 1543.632 1559.496 1560.833 1552.821 1546.173 1543.458 1537.218 1517.432 1500.922 1480.275 1465.096 1459.821 1447.691 1430.959 1436.088 1457.318 1468.152 1467.881 1463.236 1475.408 1492.039 1502.514 1508.986 1505.362 1496.048 1517.987 1530.889 1548.398 1564.911 1571.537 1576.796 1580.149 1585.591 1588.422 1591.371 1592.937 1595.338 1594.807 1589.036 1577.549 1568.682 1569.619 1563.753 1564.428 1568.617 1568.784 1564.262 1545.011 1520.769 1499.189 1477.978 1459.889 1443.346 1426.666 1415.219 1408.254 1405.589 1400.248 1392.190 1383.399 1380.407 1372.480 1368.614 1374.949 1380.864 1381.379 1375.931 1367.286 1372.809 1383.575 1386.187 1385.321 1366.512 1341.037 1319.651 1314.633 1321.188 1330.450 1333.427 1315.665 1298.506 1297.052 1302.179 1308.584 1308.007 1284.023 1259.007 1250.306 1254.666 1254.668 1246.452 1243.146 1220.136 1195.718 1180.501 1181.193 1187.888 1189.144 1178.041 1175.692 1172.577 1156.831 1141.930 1141.641 1148.317 1150.461 1145.734 1135.120 1121.492 1117.575 1112.043 1109.666 1106.778 1103.565 1100.460 1091.452 1076.667 1076.859 1070.099 1065.767 1053.972 -99999.000 -99999.000 -99999.000 -99999.000 -99999.000 -99999.000 -99999.000 -99999.000 -99999.000 -99999.000 -99999.000 -99999.000 -99999.000 -99999.000 -99999.000 -99999.000 -99999.000 -99999.000 -99999.000 -99999.000 -99999.000
-99999.000 -99999.000 -99999.000 -99999.000 -99999.000 -99999.000 -99999.000 -99999.000 -99999.000 -99999.000 -99999.000 -99999.000 -99999.000 -99999.000 -99999.000 -99999.000 -99999.000 -99999.000 -99999.000 -99999.000 -99999.000 -99999.000 -99999.000 -99999.000 -99999.000 -99999.000 1922.496 1903.244 1888.717 1870.472 1852.746 1835.438 1820.405 1814.957 1809.483 1802.844 1798.776 1787.576 1770.762 1744.401 1728.392 1709.495 1682.253 1663.077 1642.278 1609.923 1602.975 1603.054 1604.828 1617.975 1624.461 1627.804 1615.271 1609.653 1590.872 1569.159 1553.519 1530.116 1531.156 1521.298 1530.207 1543.064 1547.716 1542.783 1532.595 1529.039 1527.271 1516.698 1493.151 1478.595 1462.375 1439.907 1434.326 1417.718 1424.474 1438.769 1445.463 1446.631 1433.266 1451.981 1466.123 1477.476 1480.167 1465.569 1490.920 1494.492 1515.880 1535.662 1548.274 1552.342 1556.808 1562.174 1565.792 1569.142 1571.465 1572.617 1574.982 1574.483 1569.733 1555.389 1544.695 1542.871 1541.120 1543.416 1549.200 1549.043 1547.350 1542.496 1520.388 1502.328 1483.309 1472.958 1450.804 1425.103 1404.339 1394.601 1386.729 1385.539 1378.753 1370.855 1366.402 1360.706 1353.190 1355.960 1361.884 1362.106 1357.115 1347.830 1360.509 1370.519 1373.124 1373.027 1363.841 1339.444 1314.954 1301.272 1299.713 1308.267 1317.212 1311.769 1289.936 1278.329 1280.776 1286.457 1285.182 1279.128 1256.983 1240.954 1232.489 1232.606 1229.063 1227.096 1216.668 1192.537 1172.870 1165.049 1170.314 1175.730 1168.444 1158.271 1161.377 1154.634 1140.549 1121.792 1128.951 1137.340 1136.141 1124.543 1114.631 1105.436 1104.125 1099.839 1095.396 1097.596 1096.554 1092.882 1082.274 1063.939 1057.350 1054.555 1052.372 1036.482 -99999.000 -99999.000 -99999.000 -99999.000 -99999.000 -99999.000 -99999.000 -99999.000 -99999.000 -99999.000 -99999.000 -99999.000 -99999.000 -99999.000 -99999.000 -99999.000 -99999.000 -99999.000 -99999.000 -99999.000
-99999.000 -99999.000 -99999.000 -99999.000 -99999.000 -99999.000 -99999.000 -99999.000 -99999.000 -99999.000 -99999.000 -99999.000 -99999.000 -99999.000 -99999.000 -99999.000 -99999.000 -99999.000 -99999.000 -99999.000 -99999.000 -99999.000 -99999.000 -99999.000 -99999.000 -99999.000 1912.049 1892.721 1873.145 1862.217 1851.599 1832.986 1811.377 1796.857 1790.693 1781.526 1780.177 1777.902 1765.967 1749.457 1734.100 1717.439 1692.846 1670.349 1647.993 1625.281 1602.825 1573.996 1578.097 1583.095 1593.981 1607.458 1602.802 1592.008 1585.372 1566.624 1547.161 1525.728 1515.729 1509.547 1515.752 1527.705 1534.970 1532.142 1521.728 1515.334 1515.119 1512.506 1493.657 1472.550 1454.705 1438.786 1416.739 1404.900 1404.434 1414.090 1422.053 1423.538 1417.532 1436.743 1452.755 1462.943 1454.969 1446.762 1459.171 1480.624 1502.912 1520.006 1530.243 1533.557 1539.948 1548.150 1550.573 1553.151 1553.382 1555.294 1556.393 1556.517 1552.501 1536.689 1523.213 1518.277 1516.907 1524.104 1528.028 1527.927 1527.190 1525.888 1515.220 1496.668 1479.606 1470.436 1445.793 1422.725 1402.173 1382.185 1370.999 1368.219 1363.248 1357.356 1352.570 1350.163 1340.046 1336.536 1341.172 1342.448 1336.990 1335.388 1349.490 1356.290 1360.327 1360.264 1355.896 1339.555 1319.104 1292.102 1280.965 1286.774 1296.683 1299.007 1285.256 1264.243 1262.022 1265.456 1266.492 1259.631 1252.896 1235.219 1223.305 1214.991 1213.651 1208.329 1203.741 1192.596 1170.262 1156.294 1152.398 1160.100 1158.794 1141.947 1144.367 1143.583 1138.565 1123.205 1111.613 1122.167 1120.894 1111.320 1105.541 1096.990 1091.504 1088.560 1082.754 1092.909 1092.509 1088.172 1078.579 1055.559 1053.834 1041.961 1037.742 1030.816 1022.609 -99999.000 -99999.000 -99999.000 -99999.000 -99999.000 -99999.000 -99999.000 -99999.000 -99999.000 -99999.000 -99999.000 -99999.000 -99999.000 -99999.000 -99999.000 -99999.000 -99999.000 -99999.000 -99999.000
-99999.000 -99999.000 -99999.000 -99999.000 -99999.000 -99999.000 -99999.000 -99999.000 -99999.000 -99999.000 -99999.000 -99999.000 -99999.000 -99999.000 -99999.000 -99999.000 -99999.000 -99999.000 -99999.000 -99999.000 -99999.000 -99999.000 -99999.000 -99999.000 -99999.000 -99999.000 -99999.000 1881.197 1864.764 1852.328 1838.131 1827.804 1812.600 1789.812 1772.916 1767.291 1756.812 1761.031 1750.680 1742.153 1735.811 1720.543 1704.173 1683.844 1659.263 1632.895 1610.475 1588.422 1567.524 1557.010 1564.353 1570.460 1574.329 1572.842 1567.315 1559.137 1543.312 1524.573 1501.914 1497.108 1500.775 1510.774 1518.101 1518.969 1510.957 1499.477 1500.534 1500.419 1492.349 1469.881 1450.390 1432.114 1419.355 1400.597 1386.837 1394.148 1402.424 1405.462 1406.326 1426.996 1441.839 1444.592 1439.562 1430.320 1446.188 1464.805 1485.782 1503.574 1510.829 1514.646 1524.185 1532.752 1534.892 1535.678 1536.030 1537.851 1540.030 1541.061 1538.046 1523.738 1502.657 1493.216 1493.471 1503.431 1509.143 1509.166 1509.074 1509.678 1501.764 1484.943 1466.919 1448.275 1431.011 1415.447 1390.879 1367.691 1359.307 1352.130 1349.103 1345.243 1341.922 1340.725 1328.909 1323.066 1323.879 1325.376 1319.113 1324.965 1337.466 1343.195 1346.583 1346.946 1343.331 1331.261 1319.745 1289.412 1270.076 1266.358 1274.415 1284.431 1283.710 1263.492 1245.964 1243.752 1245.999 1242.261 1240.701 1233.599 1222.068 1206.419 1196.534 1195.737 1186.141 1184.479 1172.950 1158.374 1141.974 1139.567 1141.069 1133.797 1125.761 1130.484 1124.817 1110.659 1099.713 1109.464 1107.950 1104.106 1100.481 1091.322 1079.592 1076.421 1069.600 1079.850 1078.030 1070.806 1062.080 1048.308 1041.933 1039.447 1029.667 1027.086 1007.593 -99999.000 -99999.000 -99999.000 -99999.000 -99999.000 -99999.000 -99999.000 -99999.000 -99999.000 -99999.000 -99999.000 -99999.000 -99999.000 -99999.000 -99999.000 -99999.000 -99999.000 -99999.000 -99999.000
-99999.000 -99999.000 -99999.000 -99999.000 -99999.000 -99999.000 -99999.000 -99999.000 -99999.000 -99999.000 -99999.000 -99999.000 -99999.000 -99999.000 -99999.000 -99999.000 -99999.000 -99999.000 -99999.000 -99999.000 -99999.000 -99999.000 -99999.000 -99999.000 -99999.000 -99999.000 -99999.000 -99999.000 1869.015 1842.527 1827.652 1812.156 1801.215 1787.114 1769.406 1750.319 1742.989 1732.099 1734.627 1723.819 1719.004 1715.596 1704.864 1687.017 1665.585 1646.194 1620.063 1596.483 1570.127 1547.830 1537.958 1542.033 1542.555 1543.158 1542.708 1540.353 1536.213 1523.428 1501.118 1481.430 1484.862 1492.313 1498.645 1503.251 1498.159 1486.819 1484.976 1485.168 1482.183 1470.325 1447.111 1427.413 1412.058 1402.538 1384.436 1370.767 1385.252 1385.558 1399.942 1417.202 1424.706 1422.484 1419.062 1415.888 1440.022 1458.650 1476.700 1488.486 1493.771 1500.684 1507.385 1513.929 1515.612 1515.733 1516.046 1518.907 1523.702 1523.255 1518.633 1505.300 1487.380 1472.008 1471.725 1485.358 1488.603 1488.721 1489.608 1490.104 1487.002 1478.885 1455.361 1431.970 1412.377 1395.613 1378.518 1361.421 1345.012 1341.244 1336.314 1332.315 1327.545 1325.304 1318.235 1308.465 1304.948 1305.460 1302.876 1316.173 1323.880 1329.231 1332.888 1333.604 1331.096 1320.852 1309.542 1289.844 1266.935 1248.845 1253.334 1264.557 1267.885 1259.256 1241.391 1227.035 1225.484 1225.913 1228.165 1221.734 1219.790 1201.250 1189.442 1180.004 1179.673 1171.719 1169.870 1158.372 1139.991 1125.959 1122.347 1121.851 1111.324 1120.821 1110.420 1095.918 1091.511 1103.672 1104.891 1104.176 1096.744 1088.610 1073.649 1066.358 1059.709 1060.562 1060.386 1055.391 1051.382 1042.334 1033.565 1030.426 1024.781 1021.902 1012.945 999.493 -99999.000 -99999.000 -99999.000 -99999.000 -99999.000 -99999.000 -99999.000 -99999.000 -99999.000 -99999.000 -99999.000 -99999.000 -99999.000 -99999.000 -99999.000 -99999.000 -99999.000 -99999.000
-99999.000 -99999.000 -99999.000 -99999.000 -99999.000 -99999.000 -99999.000 -99999.000 -99999.000 -99999.000 -99999.000 -99999.000 -99999.000 -99999.000 -99999.000 -99999.000 -99999.000 -99999.000 -99999.000 -99999.000 -99999.000 -99999.000 -99999.000 -99999.000 -99999.000 -99999.000 -99999.000 -99999.000 1861.989 1839.195 1819.233 1804.573 1790.224 1775.273 1765.212 1751.662 1732.954 1715.621 1707.620 1707.512 1701.500 1696.615 1688.906 1678.015 1667.543 1646.935 1620.957 1595.550 1573.673 1551.493 1530.775 1512.601 1518.147 1516.493 1513.211 1509.110 1511.364 1513.439 1496.146 1478.102 1467.063 1470.958 1479.857 1485.752 1483.423 1472.775 1467.637 1473.163 1473.033 1463.934 1444.824 1424.490 1403.286 1393.812 1383.956 1360.863 1366.716 1373.188 1389.310 1403.237 1407.882 1402.000 1393.460 1404.033 1426.138 1446.077 1465.021 1472.834 1476.413 1486.141 1494.038 1498.772 1499.297 1497.950 1498.733 1502.044 1506.243 1505.114 1497.337 1490.897 1472.618 1456.385 1453.795 1469.307 1470.867 1468.352 1471.754 1471.291 1467.311 1463.200 1449.861 1428.395 1403.168 1382.443 1362.076 1345.299 1330.201 1329.454 1326.802 1318.666 1313.505 1308.295 1305.848 1296.006 1290.995 1287.837 1297.105 1305.059 1311.647 1315.866 1321.551 1322.161 1319.540 1310.181 1297.168 1287.480 1265.922 1243.282 1233.749 1243.638 1251.030 1248.927 1236.056 1221.265 1208.324 1208.953 1214.026 1212.652 1208.672 1203.678 1186.796 1172.346 1163.906 1158.045 1159.949 1155.990 1144.625 1133.342 1120.200 1102.592 1102.213 1109.451 1101.448 1085.319 1084.144 1090.955 1093.265 1091.236 1083.437 1077.044 1067.275 1060.118 1051.036 1045.022 1046.583 1044.492 1041.804 1040.141 1032.214 1024.190 1019.627 1013.714 1012.754 1002.019 980.478 -99999.000 -99999.000 -99999.000 -99999.000 -99999.000 -99999.000 -99999.000 -99999.000 -99999.000 -99999.000 -99999.000 -99999.000 -99999.000 -99999.000 -99999.000 -99999.000 -99999.000
-99999.000 -99999.000 -99999.000 -99999.000 -99999.000 -99999.000 -99999.000 -99999.000 -99999.000 -99999.000 -99999.000 -99999.000 -99999.000 -99999.000 -99999.000 -99999.000 -99999.000 -99999.000 -99999.000 -99999.000 -99999.000 -99999.000 -99999.000 -99999.000 -99999.000 -99999.000 -99999.000 -99999.000 -99999.000 1826.468 1810.135 1795.457 1782.565 1768.488 1754.962 1745.555 1732.827 1713.866 1694.088 1683.641 1677.762 1675.671 1669.463 1661.113 1648.677 1640.680 1626.604 1606.740 1580.361 1558.514 1537.361 1516.920 1481.987 1490.329 1489.814 1484.686 1475.036 1479.166 1478.937 1468.567 1451.870 1451.309 1457.726 1466.218 1465.644 1457.256 1449.352 1455.968 1456.503 1452.914 1438.704 1419.711 1398.167 1382.948 1379.539 1361.828 1349.282 1360.540 1377.781 1390.560 1392.419 1384.257 1380.512 1398.209 1416.641 1429.906 1444.185 1452.614 1463.412 1470.547 1477.613 1481.378 1481.531 1480.151 1483.025 1485.880 1491.288 1489.298 1477.176 1473.522 1456.323 1437.689 1434.753 1444.547 1446.416 1446.648 1449.988 1450.595 1447.300 1442.002 1432.401 1419.620 1397.074 1374.636 1354.857 1334.089 1318.068 1315.038 1316.098 1306.876 1299.366 1294.574 1289.583 1285.286 1280.856 1279.571 1288.705 1294.851 1300.387 1302.379 1307.868 1309.196 1307.850 1302.079 1286.105 1274.071 1266.224 1242.936 1223.724 1223.491 1230.975 1232.938 1227.029 1213.252 1201.948 1193.306 1199.712 1202.751 1194.154 1195.116 1186.827 1168.131 1155.671 1148.966 1151.333 1148.569 1143.180 1134.792 1119.661 1097.095 1089.676 1096.858 1093.544 1077.662 1066.715 1073.580 1076.987 1076.906 1071.578 1063.701 1058.105 1052.315 1046.285 1037.643 1036.888 1036.589 1034.127 1032.669 1030.216 1024.693 1011.355 1009.694 1004.207 993.083 971.371 -99999.000 -99999.000 -99999.000 -99999.000 -99999.000 -99999.000 -99999.000 -99999.000 -99999.000 -99999.000 -99999.000 -99999.000 -99999.000 -99999.000 -99999.000 -99999.000 -99999.000
-99999.000 -99999.000 -99999.000 -99999.000 -99999.000 -99999.000 -99999.000 -99999.000 -99999.000 -99999.000 -99999.000 -99999.000 -99999.000 -99999.000 -99999.000 -99999.000 -99999.000 -99999.000 -99999.000 -99999.000 -99999.000 -99999.000 -99999.000 -99999.000 -99999.000 -99999.000 -99999.000 -99999.000 -99999.000 1829.280 1803.350 1787.741 1773.094 1765.973 1748.627 1732.789 1723.768 1709.146 1697.971 1684.483 1662.602 1644.667 1644.515 1641.246 1630.045 1620.364 1615.479 1608.991 1591.538 1570.059 1543.670 1519.712 1493.529 1474.781 1457.227 1462.561 1454.823 1454.673 1453.413 1450.445 1438.900 1432.303 1438.599 1446.850 1446.514 1437.223 1435.249 1438.299 1443.382 1442.537 1428.151 1407.843 1388.044 1371.155 1369.965 1354.652 1333.049 1353.265 1363.903 1376.287 1374.649 1366.105 1373.667 1391.176 1403.775 1415.721 1431.618 1443.744 1449.779 1456.311 1460.936 1463.562 1463.197 1461.262 1465.856 1471.118 1471.966 1465.683 1455.188 1451.939 1440.247 1424.170 1420.259 1424.079 1427.319 1425.400 1429.142 1429.247 1426.275 1420.859 1414.025 1403.328 1386.576 1365.655 1344.127 1321.393 1304.804 1297.357 1301.007 1295.696 1291.406 1290.542 1282.797 1282.200 1274.534 1271.154 1279.652 1284.643 1290.598 1290.596 1294.306 1295.104 1293.469 1288.028 1274.866 1262.588 1255.436 1240.334 1220.009 1204.603 1209.287 1216.450 1215.272 1203.359 1193.068 1183.166 1187.523 1192.447 1184.237 1183.331 1178.913 1168.372 1151.090 1139.649 1143.000 1145.095 1138.519 1126.732 1113.084 1089.202 1078.396 1083.267 1083.668 1069.032 1058.910 1054.993 1062.313 1065.146 1060.669 1055.123 1049.917 1043.943 1039.426 1034.192 1027.134 1029.289 1027.043 1024.485 1021.393 1019.793 1013.993 1000.447 998.740 987.278 959.039 934.860 -99999.000 -99999.000 -99999.000 -99999.000 -99999.000 -99999.000 -99999.000 -99999.000 -99999.000 -99999.000 -99999.000 -99999.000 -99999.000 -99999.000 -99999.000 -99999.000
-99999.000 -99999.000 -99999.000 -99999.000 -99999.000 -99999.000 -99999.000 -99999.000 -99999.000 -99999.000 -99999.000 -99999.000 -99999.000 -99999.000 -99999.000 -99999.000 -99999.000 -99999.000 -99999.000 -99999.000 -99999.000 -99999.000 -99999.000 -99999.000 -99999.000 -99999.000 -99999.000 -99999.000 -99999.000 -99999.000 1808.551 1786.638 1764.395 1749.128 1741.925 1725.573 1713.309 1704.357 1681.341 1672.181 1668.265 1651.249 1627.422 1610.546 1610.533 1599.578 1592.529 1591.198 1588.983 1571.073 1547.621 1524.413 1502.765 1481.394 1455.195 1428.646 1430.291 1416.703 1428.284 1431.977 1425.427 1416.380 1421.672 1428.075 1423.945 1416.008 1418.116 1421.770 1427.586 1428.532 1417.176 1398.082 1378.906 1357.744 1355.112 1347.018 1328.889 1333.075 1351.451 1360.044 1357.098 1349.540 1366.817 1379.556 1390.188 1409.618 1421.107 1430.480 1438.029 1443.578 1447.098 1447.848 1446.047 1444.752 1452.174 1457.045 1456.359 1445.281 1437.291 1432.812 1421.903 1405.112 1393.284 1402.786 1407.197 1405.109 1408.708 1409.141 1406.985 1400.666 1396.099 1388.370 1375.155 1355.307 1337.613 1315.703 1295.647 1283.348 1290.702 1292.114 1285.570 1283.531 1276.364 1273.063 1271.046 1264.081 1270.498 1273.558 1277.285 1279.089 1282.003 1282.976 1278.569 1273.500 1264.941 1251.605 1240.791 1231.644 1220.837 1202.778 1191.751 1194.730 1197.775 1193.766 1182.489 1172.023 1178.540 1181.838 1171.272 1172.839 1169.932 1161.115 1152.195 1134.294 1124.853 1128.819 1123.276 1112.698 1101.609 1085.092 1069.197 1065.866 1069.193 1066.515 1049.677 1045.985 1044.036 1050.491 1051.755 1047.754 1042.986 1037.910 1033.743 1029.405 1024.424 1020.059 1019.640 1016.354 1014.009 1011.650 1010.927 1002.189 991.157 986.370 961.520 935.143 917.961 -99999.000 -99999.000 -99999.000 -99999.000 -99999.000 -99999.000 -99999.000 -99999.000 -99999.000 -99999.000 -99999.000 -99999.000 -99999.000 -99999.000 -99999.000
-99999.000 -99999.000 -99999.000 -99999.000 -99999.000 -99999.000 -99999.000 -99999.000 -99999.000 -99999.000 -99999.000 -99999.000 -99999.000 -99999.000 -99999.000 -99999.000 -99999.000 -99999.000 -99999.000 -99999.000 -99999.000 -99999.000 -99999.000 -99999.000 -99999.000 -99999.000 -99999.000 -99999.000 -99999.000 -99999.000 -99999.000 1787.044 1767.677 1747.024 1724.997 1711.972 1686.454 1680.036 1663.299 1654.347 1653.131 1647.359 1635.177 1616.912 1595.366 1574.880 1569.318 1565.671 1564.464 1558.817 1547.813 1529.202 1510.141 1489.673 1467.754 1449.668 1422.115 1391.992 1394.383 1406.342 1410.485 1405.230 1405.912 1413.173 1405.931 1395.104 1401.087 1404.793 1411.294 1414.390 1413.731 1398.819 1378.913 1357.532 1336.670 1328.981 1322.492 1321.605 1337.293 1343.746 1340.911 1344.529 1361.604 1365.822 1384.984 1399.022 1410.864 1416.645 1423.923 1429.299 1430.858 1430.649 1428.392 1430.901 1436.933 1439.588 1439.898 1429.491 1417.519 1410.273 1404.303 1385.943 1374.362 1384.707 1390.292 1388.272 1391.375 1392.611 1388.706 1383.232 1373.837 1366.582 1358.928 1345.106 1326.146 1304.165 1288.297 1270.188 1278.285 1279.049 1276.951 1275.949 1271.252 1268.724 1266.231 1262.251 1257.100 1258.441 1261.625 1265.421 1268.036 1268.094 1265.488 1261.697 1255.954 1244.851 1228.146 1220.617 1216.838 1203.785 1186.099 1175.409 1180.324 1179.769 1172.851 1160.605 1161.792 1165.395 1160.455 1155.912 1154.061 1147.653 1139.766 1132.033 1116.438 1110.248 1106.074 1098.630 1088.392 1078.944 1067.124 1056.891 1054.720 1054.561 1041.954 1037.050 1031.554 1036.626 1042.936 1040.896 1037.010 1032.751 1030.050 1025.871 1018.962 1010.986 1008.511 1007.266 1004.724 1003.611 1003.458 997.549 985.009 981.527 963.194 936.359 910.645 -99999.000 -99999.000 -99999.000 -99999.000 -99999.000 -99999.000 -99999.000 -99999.000 -99999.000 -99999.000 -99999.000 -99999.000 -99999.000 -99999.000 -99999.000
-99999.000 -99999.000 -99999.000 -99999.000 -99999.000 -99999.000 -99999.000 -99999.000 -99999.000 -99999.000 -99999.000 -99999.000 -99999.000 -99999.000 -99999.000 -99999.000 -99999.000 -99999.000 -99999.000 -99999.000 -99999.000 -99999.000 -99999.000 -99999.000 -99999.000 -99999.000 -99999.000 -99999.000 -99999.000 -99999.000 -99999.000 1785.884 1766.727 1746.961 1725.580 1706.283 1665.871 1646.650 1634.284 1634.524 1631.642 1625.237 1625.706 1619.161 1604.103 1587.668 1566.982 1545.651 1530.909 1532.148 1526.129 1519.266 1508.891 1492.150 1471.500 1450.539 1431.158 1388.667 1364.324 1383.891 1388.765 1390.393 1380.372 1394.148 1390.161 1376.202 1373.733 1381.053 1393.345 1395.910 1395.870 1393.293 1378.078 1358.805 1337.241 1314.901 1307.969 1306.116 1323.194 1326.808 1322.414 1337.792 1345.276 1359.643 1376.685 1393.146 1399.224 1403.126 1410.032 1414.899 1416.870 1414.400 1412.038 1420.008 1422.357 1419.528 1418.276 1409.833 1397.355 1390.103 1388.873 1372.297 1355.591 1368.304 1372.858 1370.160 1373.928 1374.832 1371.116 1357.969 1344.454 1340.506 1341.126 1320.408 1303.300 1285.788 1270.560 1261.742 1260.715 1265.915 1265.631 1264.917 1260.274 1257.602 1256.702 1255.400 1249.065 1246.332 1248.125 1249.969 1251.607 1252.276 1251.693 1249.034 1244.964 1234.790 1223.839 1209.553 1203.588 1194.952 1181.828 1166.951 1160.605 1162.925 1162.050 1152.048 1143.224 1149.880 1148.062 1140.901 1140.928 1133.518 1123.071 1116.541 1106.749 1101.632 1092.993 1087.225 1077.602 1070.043 1066.094 1052.653 1044.251 1039.572 1036.167 1029.973 1023.431 1021.839 1031.380 1034.183 1031.223 1026.934 1023.293 1019.336 1014.154 1005.676 999.205 997.580 996.106 995.087 994.269 986.773 978.641 977.219 963.923 939.859 913.482 913.339 -99999.000 -99999.000 -99999.000 -99999.000 -99999.000 -99999.000 -99999.000 -99999.000 -99999.000 -99999.000 -99999.000 -99999.000 -99999.000 -99999.000
-99999.000 -99999.000 -99999.000 -99999.000 -99999.000 -99999.000 -99999.000 -99999.000 -99999.000 -99999.000 -99999.000 -99999.000 -99999.000 -99999.000 -99999.000 -99999.000 -99999.000 -99999.000 -99999.000 -99999.000 -99999.000 -99999.000 -99999.000 -99999.000 -99999.000 -99999.000 -99999.000 -99999.000 -99999.000 -99999.000 -99999.000 -99999.000 1762.279 1743.166 1723.331 1705.472 1687.113 1667.150 1634.454 1613.358 1608.937 1603.558 1600.156 1599.320 1595.411 1590.285 1573.259 1554.697 1533.727 1512.356 1499.460 1497.643 1490.665 1477.760 1464.260 1446.582 1429.390 1394.122 1368.105 1341.936 1371.253 1375.475 1370.950 1366.357 1369.077 1355.891 1347.419 1360.517 1374.940 1377.194 1376.010 1377.898 1375.579 1357.415 1336.233 1316.888 1296.528 1293.830 1308.399 1312.115 1316.858 1327.105 1339.143 1356.981 1374.213 1382.720 1383.059 1388.667 1395.874 1400.007 1400.225 1395.234 1400.653 1407.947 1407.269 1402.206 1399.204 1393.792 1383.024 1374.897 1371.465 1355.793 1339.277 1349.148 1354.449 1353.187 1355.839 1355.484 1350.750 1333.362 1319.859 1318.506 1318.108 1306.445 1286.340 1269.562 1253.952 1246.553 1241.552 1249.209 1251.365 1250.703 1246.504 1244.547 1244.002 1243.170 1236.724 1236.160 1239.537 1240.495 1239.518 1238.086 1237.628 1237.048 1233.601 1225.626 1212.003 1202.545 1191.145 1184.800 1176.460 1157.808 1151.515 1144.954 1147.481 1141.146 1134.594 1134.558 1133.511 1124.279 1125.310 1118.208 1109.324 1102.613 1093.104 1091.645 1086.266 1078.160 1070.107 1064.540 1060.778 1054.117 1039.015 1031.944 1028.195 1022.361 1016.897 1015.561 1017.063 1024.519 1023.412 1019.665 1015.243 1011.317 1005.918 999.562 994.825 989.409 987.570 986.228 987.217 980.231 973.634 971.399 963.260 938.364 914.801 900.446 919.236 -99999.000 -99999.000 -99999.000 -99999.000 -99999.000 -99999.000 -99999.000 -99999.000 -99999.000 -99999.000 -99999.000 -99999.000 -99999.000
-99999.000 -99999.000 -99999.000 -99999.000 -99999.000 -99999.000 -99999.000 -99999.000 -99999.000 -99999.000 -99999.000 -99999.000 -99999.000 -99999.000 -99999.000 -99999.000 -99999.000 -99999.000 -99999.000 -99999.000 -99999.000 -99999.000 -99999.000 -99999.000 -99999.000 -99999.000 -99999.000 -99999.000 -99999.000 -99999.000 -99999.000 -99999.000 1754.050 1732.814 1713.803 1695.158 1675.982 1666.504 1645.845 1619.009 1597.527 1587.315 1580.580 1573.092 1568.873 1563.905 1562.086 1555.235 1539.351 1522.466 1501.946 1473.594 1466.502 1457.133 1446.491 1431.778 1399.612 1378.385 1365.835 1338.937 1323.588 1319.458 1321.850 1332.221 1347.553 1342.314 1328.766 1340.533 1354.564 1361.317 1357.845 1362.207 1366.031 1356.612 1336.347 1315.964 1297.246 1278.899 1295.556 1297.467 1307.714 1316.111 1334.087 1352.062 1367.652 1371.217 1370.216 1373.749 1378.551 1379.794 1377.269 1373.390 1385.568 1386.501 1385.917 1380.071 1374.881 1372.760 1361.603 1350.355 1350.336 1335.006 1322.952 1331.177 1335.662 1332.318 1337.339 1336.331 1330.742 1311.652 1297.797 1293.073 1294.727 1292.336 1273.144 1256.092 1240.994 1226.676 1224.044 1228.686 1230.650 1232.487 1233.136 1232.552 1233.100 1226.689 1222.096 1226.777 1235.171 1239.937 1240.214 1236.968 1229.199 1223.634 1217.805 1211.451 1201.830 1191.314 1183.311 1175.278 1166.368 1158.947 1142.190 1136.325 1132.083 1126.537 1121.194 1119.544 1118.418 1114.918 1106.162 1102.261 1095.304 1089.130 1081.470 1081.795 1078.753 1072.313 1065.482 1058.878 1058.140 1054.765 1036.870 1024.395 1023.353 1020.206 1014.844 1005.989 1004.091 1014.802 1014.496 1011.181 1007.608 1001.986 996.341 991.166 986.586 984.085 979.388 980.688 980.828 976.133 967.708 966.330 964.930 941.096 918.479 897.315 905.805 -99999.000 -99999.000 -99999.000 -99999.000 -99999.000 -99999.000 -99999.000 -99999.000 -99999.000 -99999.000 -99999.000 -99999.000 -99999.000
-99999.000 -99999.000 -99999.000 -99999.000 -99999.000 -99999.000 -99999.000 -99999.000 -99999.000 -99999.000 -99999.000 -99999.000 -99999.000 -99999.000 -99999.000 -99999.000 -99999.000 -99999.000 -99999.000 -99999.000 -99999.000 -99999.000 -99999.000 -99999.000 -99999.000 -99999.000 -99999.000 -99999.000 -99999.000 -99999.000 -99999.000 -99999.000 -99999.000 1748.691 1730.192 1705.903 1682.824 1662.108 1638.642 1619.073 1601.435 1580.713 1549.987 1545.015 1532.756 1523.916 1529.069 1535.759 1528.576 1524.012 1509.221 1483.368 1437.745 1412.854 1399.077 1393.750 1386.038 1370.128 1345.876 1318.418 1316.408 1307.332 1303.056 1300.560 1298.401 1316.026 1310.337 1323.520 1338.288 1346.770 1342.503 1346.082 1354.175 1352.570 1333.946 1316.183 1295.898 1274.452 1280.018 1285.240 1295.513 1311.446 1329.131 1345.948 1356.867 1360.445 1354.564 1360.481 1364.073 1363.845 1360.423 1359.920 1369.446 1367.179 1365.173 1359.574 1353.291 1354.061 1346.134 1332.759 1330.612 1316.963 1301.278 1313.345 1313.867 1317.247 1321.673 1318.369 1307.597 1290.639 1277.711 1272.521 1276.837 1277.613 1268.511 1249.789 1231.958 1214.864 1208.532 1209.634 1211.063 1214.156 1219.033 1220.132 1218.729 1214.515 1212.326 1220.906 1235.341 1240.300 1239.992 1236.278 1227.086 1217.996 1210.606 1204.437 1193.275 1181.956 1171.222 1160.844 1154.822 1146.909 1136.019 1127.296 1122.874 1115.130 1109.343 1104.367 1101.418 1098.351 1090.208 1087.132 1082.951 1079.112 1073.379 1072.192 1072.045 1067.134 1061.804 1050.883 1045.280 1042.917 1035.037 1016.534 1016.285 1013.613 1008.803 999.910 993.582 1004.976 1008.918 1004.955 1000.030 994.269 988.627 983.743 980.744 978.276 975.775 970.432 970.725 971.063 961.593 961.725 963.912 951.535 933.031 906.619 889.022 904.136 -99999.000 -99999.000 -99999.000 -99999.000 -99999.000 -99999.000 -99999.000 -99999.000 -99999.000 -99999.000 -99999.000 -99999.000
-99999.000 -99999.000 -99999.000 -99999.000 -99999.000 -99999.000 -99999.000 -99999.000 -99999.000 -99999.000 -99999.000 -99999.000 -99999.000 -99999.000 -99999.000 -99999.000 -99999.000 -99999.000 -99999.000 -99999.000 -99999.000 -99999.000 -99999.000 -99999.000 -99999.000 -99999.000 -99999.000 -99999.000 -99999.000 -99999.000 -99999.000 -99999.000 -99999.000 1751.079 1735.564 1716.311 1696.596 1675.988 1658.211 1640.986 1615.411 1588.588 1560.485 1535.733 1516.354 1493.503 1491.774 1510.810 1505.192 1504.615 1500.289 1483.804 1456.395 1424.467 1403.038 1381.278 1355.219 1343.517 1327.807 1313.420 1292.571 1297.846 1282.598 1284.131 1278.152 1286.842 1296.293 1308.745 1325.650 1335.036 1329.891 1329.066 1339.505 1341.433 1329.611 1309.564 1289.458 1271.014 1263.537 1273.849 1291.759 1307.127 1322.903 1339.225 1346.969 1347.843 1339.058 1348.506 1351.021 1346.953 1342.480 1354.812 1361.303 1353.976 1349.005 1342.545 1334.103 1336.703 1327.294 1314.252 1306.833 1297.996 1284.993 1288.562 1290.030 1301.686 1305.052 1300.612 1290.020 1270.502 1260.405 1254.167 1257.381 1260.392 1256.477 1246.703 1230.069 1212.883 1197.587 1195.659 1196.246 1195.394 1199.267 1201.094 1201.537 1199.596 1205.364 1218.579 1231.258 1234.273 1232.810 1224.330 1215.733 1211.807 1204.816 1191.931 1179.955 1167.886 1157.108 1148.911 1141.379 1131.943 1128.462 1116.921 1112.387 1107.168 1100.685 1095.350 1089.588 1085.526 1081.689 1078.071 1074.087 1070.456 1066.482 1063.364 1058.398 1058.287 1054.202 1046.714 1037.079 1026.920 1019.820 1012.621 1005.416 1011.254 1010.736 996.148 989.241 993.108 1002.776 1001.325 996.458 990.940 985.823 981.006 976.135 974.104 970.924 967.448 964.238 963.900 954.797 951.658 952.791 951.685 934.783 904.933 881.060 889.842 906.388 -99999.000 -99999.000 -99999.000 -99999.000 -99999.000 -99999.000 -99999.000 -99999.000 -99999.000 -99999.000 -99999.000
-99999.000 -99999.000 -99999.000 -99999.000 -99999.000 -99999.000 -99999.000 -99999.000 -99999.000 -99999.000 -99999.000 -99999.000 -99999.000 -99999.000 -99999.000 -99999.000 -99999.000 -99999.000 -99999.000 -99999.000 -99999.000 -99999.000 -99999.000 -99999.000 -99999.000 -99999.000 -99999.000 -99999.000 -99999.000 -99999.000 -99999.000 -99999.000 -99999.000 -99999.000 1733.866 1717.616 1697.819 1678.592 1660.049 1641.220 1621.195 1598.806 1574.391 1551.799 1522.835 1499.636 1470.472 1459.054 1462.766 1459.256 1473.206 1472.393 1465.751 1432.310 1414.664 1393.792 1372.300 1353.278 1331.274 1317.723 1306.005 1282.572 1263.080 1270.391 1263.377 1266.698 1282.037 1290.881 1308.986 1320.430 1317.954 1310.967 1319.586 1328.094 1322.802 1302.902 1283.789 1258.536 1252.458 1270.446 1285.378 1301.591 1317.482 1331.356 1337.143 1338.034 1327.826 1334.439 1336.070 1325.888 1334.109 1350.013 1350.642 1345.530 1329.072 1324.590 1310.168 1310.800 1298.123 1282.993 1280.363 1278.859 1270.283 1268.694 1275.721 1287.573 1290.415 1284.715 1275.379 1255.789 1242.175 1237.184 1237.399 1245.284 1239.640 1233.775 1224.291 1208.835 1191.607 1183.510 1184.652 1178.143 1178.355 1181.983 1182.734 1188.766 1200.839 1209.631 1211.115 1209.887 1204.422 1206.265 1203.196 1197.806 1185.276 1173.243 1160.337 1151.224 1141.920 1132.734 1124.673 1121.138 1116.044 1107.910 1101.754 1099.376 1093.173 1087.361 1082.116 1077.942 1071.579 1067.729 1065.406 1062.995 1059.862 1053.875 1051.479 1047.832 1045.681 1041.147 1032.697 1027.622 1018.851 1009.931 998.927 998.668 1004.442 999.021 981.176 982.474 997.727 997.289 992.598 988.799 984.078 978.796 975.775 966.592 964.567 961.484 957.404 957.253 954.496 937.421 936.003 934.998 930.901 911.450 888.399 874.346 893.169 916.546 -99999.000 -99999.000 -99999.000 -99999.000 -99999.000 -99999.000 -99999.000 -99999.000 -99999.000 -99999.000
-99999.000 -99999.000 -99999.000 -99999.000 -99999.000 -99999.000 -99999.000 -99999.000 -99999.000 -99999.000 -99999.000 -99999.000 -99999.000 -99999.000 -99999.000 -99999.000 -99999.000 -99999.000 -99999.000 -99999.000 -99999.000 -99999.000 -99999.000 -99999.000 -99999.000 -99999.000 -99999.000 -99999.000 -99999.000 -99999.000 -99999.000 -99999.000 -99999.000 -99999.000 -99999.000 1706.650 1694.873 1675.956 1657.515 1639.649 1621.448 1600.428 1578.667 1553.136 1530.089 1501.682 1473.541 1451.736 1435.996 1428.568 1430.822 1451.427 1448.164 1430.858 1404.701 1399.886 1380.322 1358.413 1345.142 1335.039 1322.450 1295.197 1271.705 1251.688 1240.482 1246.397 1259.873 1267.448 1292.506 1305.457 1302.508 1292.238 1303.943 1314.983 1313.811 1294.952 1272.870 1251.802 1239.425 1261.224 1277.173 1292.343 1307.342 1323.784 1328.932 1329.728 1317.602 1317.586 1315.870 1314.151 1331.385 1339.887 1338.791 1327.930 1307.346 1294.019 1279.417 1277.956 1268.815 1258.793 1260.676 1259.668 1256.167 1250.161 1262.930 1272.051 1273.699 1268.838 1257.492 1241.764 1225.521 1219.434 1221.923 1229.152 1221.238 1220.008 1213.960 1202.721 1188.521 1170.219 1172.392 1164.667 1160.775 1164.135 1169.143 1185.268 1196.566 1195.597 1192.729 1189.375 1182.765 1180.329 1176.039 1168.773 1160.213 1152.709 1143.507 1137.128 1130.140 1119.567 1108.653 1106.711 1100.869 1095.428 1092.888 1089.525 1082.886 1082.133 1075.949 1068.048 1064.284 1060.724 1057.471 1054.473 1050.936 1047.587 1040.195 1038.289 1036.505 1032.349 1028.272 1023.332 1020.663 1010.634 994.465 992.210 993.550 991.076 975.574 971.163 985.649 989.098 986.500 985.643 980.553 972.187 968.591 961.692 958.978 956.802 952.470 947.318 947.712 942.751 929.981 919.385 919.096 908.728 882.645 859.655 877.837 913.874 -99999.000 -99999.000 -99999.000 -99999.000 -99999.000 -99999.000 -99999.000 -99999.000 -99999.000 -99999.000
-99999.000 -99999.000 -99999.000 -99999.000 -99999.000 -99999.000 -99999.000 -99999.000 -99999.000 -99999.000 -99999.000 -99999.000 -99999.000 -99999.000 -99999.000 -99999.000 -99999.000 -99999.000 -99999.000 -99999.000 -99999.000 -99999.000 -99999.000 -99999.000 -99999.000 -99999.000 -99999.000 -99999.000 -99999.000 -99999.000 -99999.000 -99999.000 -99999.000 -99999.000 -99999.000 1689.153 1678.275 1665.890 1654.537 1637.495 1620.536 1603.387 1574.099 1547.213 1524.482 1501.105 1489.837 1460.293 1432.235 1414.309 1404.388 1429.315 1425.159 1419.424 1389.466 1366.771 1353.422 1340.386 1322.998 1319.204 1311.042 1301.685 1280.840 1258.943 1236.316 1222.217 1231.162 1250.876 1274.400 1290.052 1288.663 1277.600 1289.374 1298.838 1300.749 1287.048 1267.357 1245.973 1230.421 1249.274 1265.386 1279.342 1296.084 1313.593 1318.630 1317.977 1306.008 1298.273 1296.195 1309.345 1325.461 1328.459 1324.975 1310.928 1295.885 1276.631 1259.560 1252.833 1248.530 1237.797 1244.612 1242.511 1238.287 1237.073 1249.812 1256.497 1258.712 1253.029 1239.040 1224.960 1211.813 1203.025 1213.004 1215.431 1208.926 1202.738 1202.131 1195.433 1180.381 1165.329 1153.615 1152.156 1145.404 1150.763 1161.810 1181.869 1191.754 1190.847 1183.823 1174.875 1167.999 1160.081 1155.682 1148.794 1142.453 1135.527 1128.657 1122.270 1116.164 1107.231 1094.811 1091.345 1085.342 1081.613 1081.016 1078.856 1075.897 1074.211 1067.388 1061.481 1057.948 1054.588 1048.424 1046.490 1042.846 1039.302 1034.016 1029.069 1028.327 1024.726 1021.598 1017.635 1014.144 1008.534 996.066 986.695 976.530 973.564 961.996 954.997 971.705 980.054 977.467 974.854 970.862 964.384 959.517 956.020 952.086 949.465 945.097 935.512 941.031 939.872 935.697 919.901 907.160 897.961 881.857 861.175 862.632 891.931 925.070 -99999.000 -99999.000 -99999.000 -99999.000 -99999.000 -99999.000 -99999.000 -99999.000 -99999.000
-99999.000 -99999.000 -99999.000 -99999.000 -99999.000 -99999.000 -99999.000 -99999.000 -99999.000 -99999.000 -99999.000 -99999.000 -99999.000 -99999.000 -99999.000 -99999.000 -99999.000 -99999.000 -99999.000 -99999.000 -99999.000 -99999.000 -99999.000 -99999.000 -99999.000 -99999.000 -99999.000 -99999.000 -99999.000 -99999.000 -99999.000 -99999.000 -99999.000 -99999.000 -99999.000 -99999.000 1660.340 1648.582 1636.881 1627.657 1612.554 1600.232 1582.804 1564.083 1542.170 1514.091 1498.005 1466.945 1428.712 1405.664 1391.838 1396.914 1389.535 1383.474 1357.819 1341.002 1333.473 1318.682 1304.321 1297.673 1291.145 1289.755 1282.343 1269.855 1248.576 1219.979 1211.924 1231.681 1248.935 1272.541 1274.857 1262.731 1270.779 1278.706 1282.265 1275.711 1256.542 1233.707 1214.149 1234.453 1250.967 1267.986 1286.037 1301.891 1308.660 1306.742 1294.642 1279.965 1286.236 1303.858 1314.956 1314.343 1306.298 1295.846 1280.507 1262.140 1246.028 1233.713 1236.300 1221.339 1229.345 1227.074 1220.723 1223.352 1231.218 1241.157 1242.812 1237.484 1223.251 1210.492 1197.544 1187.444 1202.079 1205.126 1194.174 1186.374 1184.224 1179.383 1170.089 1157.167 1141.958 1132.018 1133.989 1140.559 1154.626 1175.570 1177.641 1173.094 1168.738 1155.965 1147.492 1142.859 1139.041 1132.018 1125.868 1118.710 1111.553 1101.293 1096.423 1089.269 1082.521 1076.518 1074.479 1069.740 1070.860 1068.998 1068.493 1063.475 1058.440 1055.224 1050.302 1046.442 1044.550 1037.587 1036.230 1031.984 1028.945 1021.334 1021.399 1020.554 1012.858 1010.703 1007.622 1003.234 993.456 971.912 960.727 956.032 948.955 943.394 958.681 973.682 973.282 969.799 964.171 959.260 956.120 951.226 947.982 945.628 942.652 935.743 930.039 935.160 935.638 929.924 920.635 911.419 889.448 865.715 851.926 870.139 909.770 917.531 -99999.000 -99999.000 -99999.000 -99999.000 -99999.000 -99999.000 -99999.000 -99999.000
-99999.000 -99999.000 -99999.000 -99999.000 -99999.000 -99999.000 -99999.000 -99999.000 -99999.000 -99999.000 -99999.000 -99999.000 -99999.000 -99999.000 -99999.000 -99999.000 -99999.000 -99999.000 -99999.000 -99999.000 -99999.000 -99999.000 -99999.000 -99999.000 -99999.000 -99999.000 -99999.000 -99999.000 -99999.000 -99999.000 -99999.000 -99999.000 -99999.000 -99999.000 -99999.000 -99999.000 1648.455 1639.599 1621.613 1607.765 1601.353 1591.084 1577.489 1560.517 1540.953 1501.615 1479.293 1461.758 1425.515 1401.837 1379.680 1371.312 1356.903 1344.323 1327.506 1318.369 1316.816 1302.821 1288.538 1274.403 1268.675 1268.675 1269.536 1261.876 1247.633 1222.955 1201.391 1213.552 1235.370 1262.806 1267.817 1252.598 1251.953 1259.801 1263.510 1258.930 1242.942 1221.903 1197.874 1220.106 1239.096 1259.107 1278.569 1296.283 1299.533 1295.513 1282.272 1267.803 1279.029 1294.280 1302.058 1300.844 1290.617 1278.520 1260.956 1247.157 1234.838 1219.460 1215.245 1207.272 1211.070 1210.955 1203.498 1207.954 1215.040 1225.463 1226.872 1222.112 1208.688 1197.834 1187.023 1174.128 1189.271 1192.308 1181.536 1179.716 1167.603 1165.186 1161.601 1149.540 1141.469 1119.844 1124.659 1130.107 1148.672 1158.557 1157.301 1152.926 1145.400 1138.936 1133.687 1128.305 1123.046 1114.268 1105.084 1098.242 1092.781 1086.031 1079.678 1074.469 1070.361 1067.077 1063.295 1061.212 1062.219 1059.485 1057.237 1055.501 1051.600 1047.732 1045.798 1038.029 1038.740 1033.647 1025.357 1025.345 1022.946 1017.566 1010.531 1013.857 1008.002 1001.678 999.747 996.475 990.484 965.842 946.808 944.334 945.286 953.178 960.857 962.961 967.324 963.667 959.348 955.259 951.811 947.590 944.803 943.319 939.366 933.231 915.277 921.798 926.504 928.714 924.256 912.243 883.524 860.989 836.549 866.031 895.373 908.154 -99999.000 -99999.000 -99999.000 -99999.000 -99999.000 -99999.000 -99999.000 -99999.000
-99999.000 -99999.000 -99999.000 -99999.000 -99999.000 -99999.000 -99999.000 -99999.000 -99999.000 -99999.000 -99999.000 -99999.000 -99999.000 -99999.000 -99999.000 -99999.000 -99999.000 -99999.000 -99999.000 -99999.000 -99999.000 -99999.000 -99999.000 -99999.000 -99999.000 -99999.000 -99999.000 -99999.000 -99999.000 -99999.000 -99999.000 -99999.000 -99999.000 -99999.000 -99999.000 -99999.000 -99999.000 1622.026 1606.929 1597.108 1581.404 1573.127 1562.349 1538.858 1513.545 1493.526 1471.662 1447.472 1423.316 1402.118 1376.897 1359.247 1347.890 1335.188 1323.693 1309.542 1299.663 1291.761 1276.846 1262.655 1248.588 1247.065 1246.878 1244.479 1236.636 1224.602 1201.484 1194.579 1224.486 1253.489 1259.564 1247.276 1233.378 1239.319 1245.074 1238.337 1223.067 1213.170 1191.481 1210.018 1232.194 1252.369 1271.860 1290.359 1290.879 1281.401 1268.822 1256.270 1270.496 1283.483 1289.091 1288.037 1275.330 1260.669 1243.435 1230.334 1220.149 1208.667 1196.083 1190.058 1193.945 1195.565 1187.330 1193.659 1200.731 1211.712 1212.914 1207.736 1194.801 1183.376 1173.703 1162.977 1174.652 1178.946 1171.086 1166.666 1159.034 1155.823 1147.665 1140.678 1128.313 1109.421 1115.120 1118.681 1133.030 1139.805 1138.145 1134.075 1129.703 1124.143 1118.288 1112.661 1101.312 1094.313 1087.125 1081.310 1075.949 1072.044 1067.716 1064.567 1060.016 1057.657 1050.183 1050.551 1053.454 1048.646 1047.833 1047.687 1044.833 1040.660 1037.491 1033.357 1029.987 1029.475 1027.579 1016.814 1019.820 1014.750 1003.884 1002.664 1002.912 993.016 993.119 987.126 981.615 957.656 950.734 958.981 962.943 962.740 962.649 956.985 958.719 956.842 954.321 951.126 947.561 944.942 942.130 939.391 935.608 930.710 915.190 906.696 909.016 911.455 911.262 897.921 872.133 848.100 831.364 858.964 886.123 896.435 899.930 -99999.000 -99999.000 -99999.000 -99999.000 -99999.000 -99999.000 -99999.000
-99999.000 -99999.000 -99999.000 -99999.000 -99999.000 -99999.000 -99999.000 -99999.000 -99999.000 -99999.000 -99999.000 -99999.000 -99999.000 -99999.000 -99999.000 -99999.000 -99999.000 -99999.000 -99999.000 -99999.000 -99999.000 -99999.000 -99999.000 -99999.000 -99999.000 -99999.000 -99999.000 -99999.000 -99999.000 -99999.000 -99999.000 -99999.000 -99999.000 -99999.000 -99999.000 -99999.000 -99999.000 -99999.000 1610.848 1589.826 1565.569 1555.037 1545.594 1537.424 1520.275 1505.634 1480.054 1456.224 1435.129 1409.944 1384.370 1359.059 1339.193 1329.074 1316.783 1304.552 1292.091 1279.473 1268.242 1254.788 1244.831 1232.677 1225.928 1219.274 1219.289 1209.124 1200.739 1180.608 1210.751 1243.048 1249.554 1243.246 1224.987 1219.552 1224.831 1220.652 1202.843 1188.760 1179.985 1200.825 1225.414 1247.894 1268.677 1283.081 1282.024 1267.905 1252.751 1245.295 1257.914 1269.262 1274.263 1272.520 1260.256 1245.150 1232.056 1215.838 1206.572 1194.596 1179.824 1177.930 1178.841 1181.969 1173.698 1180.939 1187.734 1198.854 1198.652 1189.851 1181.454 1170.766 1158.485 1149.651 1161.295 1164.816 1160.984 1153.824 1151.310 1141.860 1135.674 1128.189 1117.218 1099.368 1105.886 1104.720 1117.630 1119.881 1118.611 1116.340 1110.811 1102.119 1095.703 1089.541 1083.534 1077.976 1073.022 1068.967 1065.958 1062.456 1057.130 1052.312 1049.281 1048.716 1040.552 1040.371 1044.320 1038.474 1037.790 1039.159 1038.342 1034.300 1029.686 1025.745 1021.172 1018.695 1017.733 1011.344 1006.345 1005.346 1002.539 992.381 992.138 990.756 982.676 972.553 968.301 962.698 962.469 962.713 958.746 951.598 947.033 940.081 940.295 943.531 945.212 938.894 932.037 933.646 938.113 936.068 932.277 930.061 922.148 902.432 896.743 896.142 894.707 888.731 866.112 833.256 821.896 848.465 885.228 890.840 894.759 894.203 -99999.000 -99999.000 -99999.000 -99999.000 -99999.000 -99999.000
-99999.000 -99999.000 -99999.000 -99999.000 -99999.000 -99999.000 -99999.000 -99999.000 -99999.000 -99999.000 -99999.000 -99999.000 -99999.000 -99999.000 -99999.000 -99999.000 -99999.000 -99999.000 -99999.000 -99999.000 -99999.000 -99999.000 -99999.000 -99999.000 -99999.000 -99999.000 -99999.000 -99999.000 -99999.000 -99999.000 -99999.000 -99999.000 -99999.000 -99999.000 -99999.000 -99999.000 -99999.000 -99999.000 1612.650 1591.247 1569.146 1549.288 1529.746 1526.003 1512.703 1503.730 1484.103 1466.696 1443.832 1415.995 1391.551 1372.510 1354.662 1335.812 1319.233 1301.184 1286.893 1274.766 1262.832 1249.871 1236.954 1224.733 1215.073 1201.021 1203.517 1202.241 1194.039 1172.662 1188.687 1224.989 1237.503 1234.907 1217.584 1201.022 1206.696 1202.156 1184.878 1169.545 1157.184 1199.637 1226.159 1248.316 1267.034 1274.614 1270.387 1254.137 1237.498 1233.427 1244.555 1254.891 1255.027 1254.330 1245.802 1231.198 1215.213 1204.939 1191.711 1180.978 1168.750 1163.106 1163.995 1165.680 1161.223 1170.798 1174.445 1180.624 1180.915 1177.693 1168.031 1159.799 1152.020 1136.646 1151.099 1151.663 1148.463 1145.201 1141.824 1136.325 1126.337 1115.881 1109.576 1094.570 1090.528 1092.545 1103.229 1103.997 1101.120 1095.510 1087.001 1079.778 1076.766 1073.265 1070.130 1066.975 1064.143 1061.147 1058.142 1053.089 1047.182 1040.721 1039.731 1041.069 1035.125 1028.819 1033.623 1028.759 1029.462 1029.407 1029.792 1028.544 1023.816 1018.321 1014.628 1011.856 1008.945 1006.474 1004.346 995.970 996.139 994.277 978.939 981.850 980.291 973.041 962.788 961.172 953.728 948.485 942.724 934.307 927.421 919.721 920.519 925.153 935.742 924.564 921.041 921.057 930.686 931.631 927.941 927.273 923.853 909.264 895.667 885.687 885.016 884.269 866.718 826.469 817.432 865.347 877.616 884.888 885.168 886.471 -99999.000 -99999.000 -99999.000 -99999.000 -99999.000 -99999.000
-99999.000 -99999.000 -99999.000 -99999.000 -99999.000 -99999.000 -99999.000 -99999.000 -99999.000 -99999.000 -99999.000 -99999.000 -99999.000 -99999.000 -99999.000 -99999.000 -99999.000 -99999.000 -99999.000 -99999.000 -99999.000 -99999.000 -99999.000 -99999.000 -99999.000 -99999.000 -99999.000 -99999.000 -99999.000 -99999.000 -99999.000 -99999.000 -99999.000 -99999.000 -99999.000 -99999.000 -99999.000 -99999.000 -99999.000 1594.099 1577.449 1560.654 1538.722 1517.092 1492.020 1483.073 1478.162 1468.636 1449.714 1431.145 1411.308 1390.342 1372.522 1357.349 1334.216 1312.462 1295.679 1281.684 1258.938 1246.371 1234.128 1222.437 1210.227 1198.390 1186.061 1181.178 1179.072 1164.024 1175.969 1212.722 1218.745 1215.622 1205.312 1185.894 1186.018 1183.889 1175.649 1152.729 1153.813 1206.009 1224.730 1244.126 1261.958 1264.394 1259.129 1242.642 1224.431 1222.558 1232.738 1236.961 1233.006 1232.046 1228.395 1218.807 1206.758 1191.222 1182.861 1166.132 1157.180 1149.404 1147.150 1150.342 1148.736 1157.825 1161.695 1168.744 1168.872 1164.214 1156.377 1151.668 1142.245 1123.652 1138.787 1138.295 1137.362 1135.691 1132.438 1123.813 1112.428 1104.702 1094.833 1091.397 1077.754 1080.733 1087.036 1086.156 1082.003 1074.861 1068.897 1065.096 1063.756 1063.714 1062.071 1059.924 1057.503 1052.306 1047.760 1044.403 1040.132 1035.134 1028.845 1033.455 1032.258 1018.351 1024.880 1021.325 1021.610 1020.610 1021.774 1021.374 1017.150 1012.676 1007.623 1004.092 1000.969 997.256 995.316 992.541 985.104 984.090 979.247 972.949 971.264 969.999 963.295 951.688 944.398 937.777 938.284 930.144 920.046 907.572 903.439 914.159 922.793 920.672 908.495 907.860 913.865 916.503 918.775 924.504 922.074 912.644 903.794 894.304 883.014 871.773 845.533 820.293 808.683 851.390 873.948 889.822 884.648 875.902 872.509 -99999.000 -99999.000 -99999.000 -99999.000 -99999.000
-99999.000 -99999.000 -99999.000 -99999.000 -99999.000 -99999.000 -99999.000 -99999.000 -99999.000 -99999.000 -99999.000 -99999.000 -99999.000 -99999.000 -99999.000 -99999.000 -99999.000 -99999.000 -99999.000 -99999.000 -99999.000 -99999.000 -99999.000 -99999.000 -99999.000 -99999.000 -99999.000 -99999.000 -99999.000 -99999.000 -99999.000 -99999.000 -99999.000 -99999.000 -99999.000 -99999.000 -99999.000 -99999.000 -99999.000 1588.568 1570.731 1559.491 1542.223 1522.690 1501.315 1480.506 1456.688 1447.137 1448.958 1441.224 1427.408 1408.902 1391.138 1372.880 1351.750 1329.754 1311.402 1291.490 1275.355 1260.935 1246.543 1231.108 1214.479 1195.016 1183.599 1172.985 1163.549 1154.444 1162.870 1178.367 1185.920 1192.685 1189.543 1172.810 1167.601 1166.126 1152.127 1135.839 1171.156 1201.138 1221.675 1240.862 1254.171 1255.135 1245.566 1232.713 1214.633 1209.789 1214.118 1213.821 1211.336 1210.338 1210.915 1204.282 1195.532 1182.094 1167.451 1157.325 1144.877 1137.877 1135.324 1138.789 1137.043 1146.277 1149.605 1155.506 1153.866 1149.537 1142.335 1140.044 1132.484 1113.105 1126.259 1125.369 1125.756 1125.282 1117.194 1103.135 1096.796 1084.782 1081.176 1080.750 1071.654 1069.429 1071.214 1067.905 1063.075 1060.522 1057.675 1056.389 1055.610 1056.008 1054.122 1049.464 1046.441 1043.136 1039.780 1035.096 1030.282 1027.615 1020.509 1020.836 1022.984 1011.396 1014.961 1013.734 1014.370 1015.054 1014.137 1013.508 1010.038 1006.594 1001.868 998.325 994.493 990.470 985.788 982.550 978.513 973.295 971.022 964.208 965.227 962.475 958.910 953.329 941.882 927.461 924.914 926.037 918.571 900.684 888.839 903.409 912.338 906.536 899.979 898.768 900.927 901.957 917.247 920.662 917.974 898.663 896.465 897.406 886.616 872.806 832.170 806.901 811.825 834.192 879.042 884.416 879.701 871.163 864.744 860.477 -99999.000 -99999.000 -99999.000 -99999.000
-99999.000 -99999.000 -99999.000 -99999.000 -99999.000 -99999.000 -99999.000 -99999.000 -99999.000 -99999.000 -99999.000 -99999.000 -99999.000 -99999.000 -99999.000 -99999.000 -99999.000 -99999.000 -99999.000 -99999.000 -99999.000 -99999.000 -99999.000 -99999.000 -99999.000 -99999.000 -99999.000 -99999.000 -99999.000 -99999.000 -99999.000 -99999.000 -99999.000 -99999.000 -99999.000 -99999.000 -99999.000 -99999.000 -99999.000 -99999.000 1569.380 1549.903 1531.518 1522.395 1505.086 1486.552 1466.943 1444.719 1427.293 1430.428 1426.505 1412.237 1399.515 1387.473 1365.342 1345.549 1324.806 1309.917 1294.579 1279.176 1265.879 1248.943 1231.079 1210.783 1190.898 1172.994 1159.886 1149.414 1145.601 1154.667 1162.621 1171.458 1171.284 1160.168 1149.479 1149.759 1135.434 1142.091 1177.802 1204.425 1221.296 1237.043 1245.381 1246.211 1237.503 1221.857 1206.715 1193.400 1195.398 1192.359 1190.005 1188.160 1190.702 1188.722 1181.265 1174.694 1159.714 1144.581 1134.530 1126.709 1124.774 1126.590 1125.819 1135.679 1136.286 1141.805 1138.883 1131.224 1125.572 1120.941 1117.494 1102.826 1115.030 1113.240 1109.984 1105.235 1098.717 1089.440 1080.295 1073.553 1070.380 1069.380 1064.481 1059.649 1058.986 1054.473 1052.679 1053.146 1051.740 1048.892 1046.741 1044.872 1042.680 1038.684 1035.055 1033.013 1027.345 1023.499 1018.356 1014.519 1012.473 1008.201 1011.567 1004.522 1007.518 1005.582 1005.545 1007.692 1007.261 1004.836 1004.092 1000.780 997.031 992.004 988.781 985.327 980.092 974.756 970.515 968.536 962.894 959.434 954.369 955.659 952.622 949.079 939.112 923.200 912.782 915.999 913.439 897.479 874.490 890.812 907.105 903.715 892.560 890.342 890.481 897.604 909.670 910.270 899.643 894.514 880.685 888.524 884.596 871.119 835.568 803.423 785.738 855.535 871.163 871.550 863.267 857.204 850.144 842.775 -99999.000 -99999.000 -99999.000 -99999.000
-99999.000 -99999.000 -99999.000 -99999.000 -99999.000 -99999.000 -99999.000 -99999.000 -99999.000 -99999.000 -99999.000 -99999.000 -99999.000 -99999.000 -99999.000 -99999.000 -99999.000 -99999.000 -99999.000 -99999.000 -99999.000 -99999.000 -99999.000 -99999.000 -99999.000 -99999.000 -99999.000 -99999.000 -99999.000 -99999.000 -99999.000 -99999.000 -99999.000 -99999.000 -99999.000 -99999.000 -99999.000 -99999.000 -99999.000 -99999.000 -99999.000 1552.509 1534.127 1510.912 1496.991 1484.420 1467.625 1447.568 1427.488 1405.337 1406.364 1402.185 1393.694 1384.223 1372.021 1360.190 1344.422 1331.115 1314.887 1296.337 1277.401 1258.370 1240.201 1222.111 1204.601 1182.368 1163.240 1147.820 1134.145 1131.870 1146.494 1153.888 1156.943 1150.988 1136.356 1131.047 1118.544 1133.758 1170.640 1198.992 1215.768 1229.947 1234.193 1234.680 1227.809 1213.617 1197.773 1183.157 1172.294 1171.992 1169.407 1165.743 1169.545 1171.021 1166.909 1161.830 1147.307 1139.650 1125.459 1116.488 1117.334 1116.488 1114.863 1124.070 1123.957 1123.567 1121.368 1117.376 1111.041 1105.759 1102.362 1090.719 1098.950 1098.153 1093.824 1089.106 1081.637 1072.638 1065.083 1061.801 1059.736 1056.268 1053.767 1051.772 1049.756 1047.527 1043.967 1043.092 1040.303 1036.937 1034.668 1031.588 1028.365 1023.488 1021.624 1019.526 1012.481 1008.572 1004.283 1000.653 1004.538 1000.063 1001.881 997.916 997.556 998.254 998.118 1001.015 1000.363 997.804 996.403 993.899 990.543 987.096 982.725 979.555 975.170 970.758 966.860 963.205 961.091 952.653 946.387 948.031 947.076 945.130 936.524 923.955 902.863 895.572 896.106 890.783 870.433 881.854 891.979 894.918 891.208 883.572 883.686 890.642 896.424 892.470 883.793 885.158 876.327 873.912 876.464 870.736 829.868 799.185 775.847 804.362 836.148 853.718 841.993 843.342 825.232 815.619 809.310 -99999.000 -99999.000 -99999.000
-99999.000 -99999.000 -99999.000 -99999.000 -99999.000 -99999.000 -99999.000 -99999.000 -99999.000 -99999.000 -99999.000 -99999.000 -99999.000 -99999.000 -99999.000 -99999.000 -99999.000 -99999.000 -99999.000 -99999.000 -99999.000 -99999.000 -99999.000 -99999.000 -99999.000 -99999.000 -99999.000 -99999.000 -99999.000 -99999.000 -99999.000 -99999.000 -99999.000 -99999.000 -99999.000 -99999.000 -99999.000 -99999.000 -99999.000 -99999.000 -99999.000 1555.182 1535.375 1515.335 1497.769 1476.481 1453.873 1441.964 1427.009 1404.601 1382.687 1380.061 1377.446 1373.267 1360.811 1356.681 1350.193 1336.890 1319.405 1297.387 1276.419 1256.517 1237.164 1220.977 1205.302 1186.954 1168.346 1151.426 1135.167 1117.589 1130.164 1134.997 1139.650 1136.901 1124.987 1111.816 1113.167 1131.819 1165.219 1193.450 1209.024 1220.027 1222.943 1223.894 1220.290 1208.174 1190.915 1172.491 1154.801 1152.838 1152.072 1146.981 1149.682 1155.731 1150.601 1148.234 1139.156 1132.632 1122.740 1107.416 1107.423 1104.280 1104.662 1114.122 1113.805 1110.583 1110.079 1104.609 1098.238 1092.069 1089.653 1081.539 1073.964 1081.164 1080.718 1071.217 1064.227 1057.878 1055.018 1053.513 1050.652 1047.016 1046.988 1045.784 1040.054 1037.667 1034.828 1031.974 1031.429 1025.366 1020.921 1018.408 1013.549 1010.200 1005.612 1001.862 999.393 995.708 992.219 991.370 995.507 992.359 994.002 990.148 987.690 990.773 990.579 994.141 993.939 991.909 988.628 986.123 983.559 980.485 976.715 973.428 969.967 966.309 961.985 957.893 955.405 952.329 940.792 936.076 939.759 939.115 932.651 918.586 902.573 887.781 865.721 870.547 861.523 873.386 878.878 878.147 880.652 879.680 876.521 880.906 883.533 876.107 871.146 872.428 867.562 859.691 860.863 858.373 834.623 793.768 766.306 777.967 792.085 815.075 815.853 807.228 798.901 802.529 794.830 784.298 -99999.000 -99999.000
-99999.000 -99999.000 -99999.000 -99999.000 -99999.000 -99999.000 -99999.000 -99999.000 -99999.000 -99999.000 -99999.000 -99999.000 -99999.000 -99999.000 -99999.000 -99999.000 -99999.000 -99999.000 -99999.000 -99999.000 -99999.000 -99999.000 -99999.000 -99999.000 -99999.000 -99999.000 -99999.000 -99999.000 -99999.000 -99999.000 -99999.000 -99999.000 -99999.000 -99999.000 -99999.000 -99999.000 -99999.000 -99999.000 -99999.000 -99999.000 -99999.000 -99999.000 1542.050 1519.740 1499.777 1478.967 1457.816 1438.796 1419.139 1405.194 1384.629 1366.193 1353.663 1351.498 1343.730 1339.517 1336.668 1333.884 1320.975 1302.761 1282.881 1263.354 1244.294 1224.494 1204.957 1186.289 1168.457 1153.303 1137.696 1116.895 1105.487 1104.355 1108.134 1112.891 1105.436 1099.798 1117.381 1136.995 1157.305 1186.402 1200.241 1209.741 1212.401 1211.036 1208.955 1201.285 1188.924 1172.039 1150.055 1134.956 1132.869 1130.319 1138.148 1138.370 1134.431 1134.233 1132.748 1122.757 1115.666 1098.611 1096.287 1093.363 1097.133 1102.185 1100.396 1100.328 1099.489 1094.588 1087.345 1079.792 1073.681 1072.680 1065.398 1066.123 1063.886 1057.243 1050.417 1047.934 1049.266 1048.928 1046.299 1043.631 1038.194 1038.886 1030.603 1029.741 1026.412 1021.862 1020.800 1017.271 1008.747 1007.375 1002.800 998.088 993.727 991.187 988.025 984.463 982.349 984.363 985.507 983.458 986.319 980.876 979.898 983.030 984.268 985.815 985.826 985.360 980.945 979.217 976.636 974.281 970.709 966.626 963.957 961.128 958.062 954.133 950.044 947.227 942.468 928.781 927.532 932.296 929.539 916.291 903.427 892.707 870.446 852.208 850.592 858.606 871.893 867.647 868.596 875.044 865.303 873.569 874.670 862.886 854.034 854.375 848.310 842.445 844.607 838.254 823.964 798.431 762.127 756.502 764.798 777.900 788.112 785.100 777.412 784.359 782.544 769.184 -99999.000 -99999.000
-99999.000 -99999.000 -99999.000 -99999.000 -99999.000 -99999.000 -99999.000 -99999.000 -99999.000 -99999.000 -99999.000 -99999.000 -99999.000 -99999.000 -99999.000 -99999.000 -99999.000 -99999.000 -99999.000 -99999.000 -99999.000 -99999.000 -99999.000 -99999.000 -99999.000 -99999.000 -99999.000 -99999.000 -99999.000 -99999.000 -99999.000 -99999.000 -99999.000 -99999.000 -99999.000 -99999.000 -99999.000 -99999.000 -99999.000 -99999.000 -99999.000 -99999.000 1543.687 1520.995 1498.356 1475.924 1454.894 1438.975 1424.363 1409.803 1392.637 1376.135 1357.479 1342.509 1319.146 1316.505 1313.313 1313.900 1313.533 1300.841 1288.610 1269.154 1247.912 1226.728 1209.531 1196.454 1181.911 1164.167 1144.504 1124.591 1100.055 1093.534 1091.413 1092.506 1090.076 1097.573 1122.520 1139.462 1156.434 1173.589 1189.401 1197.800 1199.270 1200.352 1199.046 1193.324 1184.214 1172.111 1151.636 1129.631 1117.515 1115.042 1124.878 1123.114 1121.758 1120.694 1119.944 1112.693 1107.789 1089.851 1082.060 1077.282 1092.075 1093.466 1089.428 1087.459 1084.252 1079.707 1074.162 1068.559 1061.387 1062.819 1062.017 1049.084 1049.769 1043.566 1039.747 1041.551 1041.737 1041.517 1038.240 1037.422 1033.908 1027.313 1025.557 1019.291 1018.281 1015.134 1011.531 1008.665 1002.945 998.121 994.545 990.497 985.101 981.285 978.648 976.031 975.549 974.886 976.311 973.976 979.184 973.483 975.225 976.230 977.443 976.393 977.693 976.549 975.415 971.678 969.504 967.296 964.355 962.099 958.240 955.707 952.595 948.982 946.085 942.893 940.012 928.325 919.348 922.409 924.665 917.669 904.045 892.304 877.183 855.658 833.168 849.629 868.127 868.906 850.630 860.476 858.577 866.797 859.570 851.183 842.416 836.261 826.245 821.786 826.624 819.811 815.327 789.908 757.942 738.092 742.903 759.225 774.583 768.494 758.336 767.199 772.863 760.612 780.415 -99999.000
-99999.000 -99999.000 -99999.000 -99999.000 -99999.000 -99999.000 -99999.000 -99999.000 -99999.000 -99999.000 -99999.000 -99999.000 -99999.000 -99999.000 -99999.000 -99999.000 -99999.000 -99999.000 -99999.000 -99999.000 -99999.000 -99999.000 -99999.000 -99999.000 -99999.000 -99999.000 -99999.000 -99999.000 -99999.000 -99999.000 -99999.000 -99999.000 -99999.000 -99999.000 -99999.000 -99999.000 -99999.000 -99999.000 -99999.000 -99999.000 -99999.000 -99999.000 -99999.000 1521.973 1499.408 1476.960 1452.650 1431.831 1414.747 1400.796 1386.496 1373.744 1361.160 1344.715 1323.824 1299.351 1283.335 1291.434 1295.996 1294.040 1288.083 1271.678 1253.740 1238.924 1224.247 1205.373 1187.600 1169.500 1149.934 1129.171 1109.231 1090.405 1081.817 1082.695 1082.706 1098.064 1116.797 1131.178 1143.401 1156.534 1178.392 1185.891 1186.203 1187.497 1186.709 1184.475 1178.167 1167.613 1154.672 1133.012 1111.439 1101.544 1108.659 1109.547 1108.597 1108.664 1107.603 1102.759 1096.458 1080.680 1067.644 1066.604 1083.579 1085.553 1081.555 1075.570 1068.529 1064.411 1061.335 1055.462 1051.303 1047.786 1047.179 1037.099 1033.797 1028.714 1026.910 1024.595 1024.038 1024.890 1026.604 1027.195 1026.464 1024.679 1017.348 1013.976 1010.179 1006.923 1002.667 997.992 992.882 987.758 985.652 981.711 979.070 974.202 971.862 968.778 968.155 966.694 969.427 967.035 970.491 967.059 966.879 968.113 970.008 969.272 968.907 967.956 967.939 963.794 963.464 960.537 958.101 955.924 953.037 949.916 948.057 944.509 940.816 937.605 935.001 929.473 916.971 911.883 917.200 919.994 903.909 891.467 878.345 857.250 833.220 838.591 854.448 860.851 841.636 835.095 851.823 858.446 849.660 833.429 823.496 820.230 809.626 796.360 800.672 791.971 789.409 785.408 767.175 735.288 729.485 741.991 749.106 749.847 743.682 753.655 748.981 752.329 774.059 785.381
-99999.000 -99999.000 -99999.000 -99999.000 -99999.000 -99999.000 -99999.000 -99999.000 -99999.000 -99999.000 -99999.000 -99999.000 -99999.000 -99999.000 -99999.000 -99999.000 -99999.000 -99999.000 -99999.000 -99999.000 -99999.000 -99999.000 -99999.000 -99999.000 -99999.000 -99999.000 -99999.000 -99999.000 -99999.000 -99999.000 -99999.000 -99999.000 -99999.000 -99999.000 -99999.000 -99999.000 -99999.000 -99999.000 -99999.000 -99999.000 -99999.000 -99999.000 -99999.000 -99999.000 1502.219 1477.456 1453.910 1434.510 1416.438 1401.353 1387.677 1371.015 1354.836 1339.113 1324.904 1301.402 1278.228 1263.786 1274.396 1275.985 1273.632 1267.724 1257.003 1240.838 1224.994 1207.939 1190.898 1172.682 1155.148 1137.943 1119.144 1092.618 1079.147 1074.994 1075.992 1093.923 1105.545 1116.396 1130.102 1142.168 1161.049 1172.962 1174.865 1175.199 1174.658 1172.830 1167.753 1160.648 1151.742 1140.429 1123.117 1098.998 1089.543 1093.260 1093.556 1094.211 1095.094 1092.658 1086.876 1081.805 1059.039 1057.975 1073.120 1075.637 1072.624 1066.005 1058.955 1052.887 1050.129 1046.456 1043.732 1035.406 1033.732 1028.452 1022.506 1017.378 1015.973 1014.556 1013.712 1014.056 1017.028 1018.017 1018.172 1016.556 1012.418 1005.806 1001.526 999.366 997.931 990.495 983.945 981.558 977.928 975.279 972.341 968.425 965.855 963.259 961.494 960.761 961.325 961.815 960.986 960.698 960.668 961.749 963.257 962.455 960.655 960.913 960.755 957.642 956.845 954.553 952.105 949.090 948.561 943.470 941.421 936.990 934.330 931.618 929.644 923.425 915.769 903.342 910.813 915.609 901.650 890.312 876.085 851.921 833.142 823.574 835.446 847.880 838.011 819.263 832.522 839.976 836.733 821.819 800.447 797.433 792.903 776.272 778.243 766.785 764.796 763.651 764.033 736.204 722.290 721.463 719.483 728.395 727.659 733.448 728.014 747.849 765.531 781.109
-99999.000 -99999.000 -99999.000 -99999.000 -99999.000 -99999.000 -99999.000 -99999.000 -99999.000 -99999.000 -99999.000 -99999.000 -99999.000 -99999.000 -99999.000 -99999.000 -99999.000 -99999.000 -99999.000 -99999.000 -99999.000 -99999.000 -99999.000 -99999.000 -99999.000 -99999.000 -99999.000 -99999.000 -99999.000 -99999.000 -99999.000 -99999.000 -99999.000 -99999.000 -99999.000 -99999.000 -99999.000 -99999.000 -99999.000 -99999.000 -99999.000 -99999.000 -99999.000 -99999.000 1507.322 1485.399 1459.931 1435.393 1414.970 1399.109 1385.384 1371.512 1356.021 1341.372 1321.635 1296.146 1278.162 1256.720 1245.227 1247.648 1249.362 1246.929 1241.372 1237.423 1224.034 1209.320 1191.919 1173.582 1157.516 1140.949 1122.970 1102.509 1078.579 1067.259 1066.202 1080.945 1095.742 1106.072 1112.976 1125.867 1140.557 1155.801 1159.943 1162.004 1161.968 1160.205 1156.226 1152.171 1144.990 1138.099 1128.551 1102.077 1081.094 1077.604 1078.204 1080.658 1083.483 1084.180 1081.275 1070.677 1053.767 1047.713 1062.758 1065.191 1060.166 1054.848 1050.180 1046.933 1041.916 1039.856 1035.278 1027.979 1023.232 1020.172 1017.524 1008.210 1007.470 1006.957 1003.724 1006.009 1008.778 1010.363 1010.447 1010.049 1006.906 1003.093 998.343 990.898 989.060 984.035 978.996 975.576 971.872 969.261 966.318 962.816 960.652 958.049 955.555 954.427 953.691 953.745 953.956 954.726 954.696 955.200 956.220 955.782 955.383 954.356 953.909 951.334 948.883 947.750 945.520 943.090 941.585 937.090 935.575 933.381 927.952 920.833 920.120 919.005 914.320 900.614 900.791 906.173 896.934 884.714 862.739 833.193 818.492 811.000 822.143 835.545 825.003 808.114 810.218 819.606 817.282 804.437 784.716 776.755 775.956 763.476 754.436 750.438 745.205 742.368 740.210 730.985 720.320 711.477 706.488 714.700 723.231 727.605 727.188 740.960 755.582 769.967
-99999.000 -99999.000 -99999.000 -99999.000 -99999.000 -99999.000 -99999.000 -99999.000 -99999.000 -99999.000 -99999.000 -99999.000 -99999.000 -99999.000 -99999.000 -99999.000 -99999.000 -99999.000 -99999.000 -99999.000 -99999.000 -99999.000 -99999.000 -99999.000 -99999.000 -99999.000 -99999.000 -99999.000 -99999.000 -99999.000 -99999.000 -99999.000 -99999.000 -99999.000 -99999.000 -99999.000 -99999.000 -99999.000 -99999.000 -99999.000 -99999.000 -99999.000 -99999.000 -99999.000 -99999.000 1490.931 1460.394 1433.841 1410.672 1394.598 1382.404 1375.538 1364.616 1349.465 1329.120 1308.384 1287.464 1265.131 1246.217 1221.508 1223.429 1223.356 1219.871 1223.502 1217.649 1204.863 1192.380 1175.272 1158.241 1141.109 1123.480 1105.114 1080.319 1064.582 1058.430 1071.577 1083.599 1091.469 1097.481 1110.274 1124.895 1133.095 1145.624 1147.834 1148.332 1146.586 1144.146 1140.204 1135.050 1131.014 1123.741 1104.848 1082.116 1066.065 1062.343 1068.050 1068.906 1074.482 1073.252 1064.648 1043.391 1040.965 1051.021 1052.490 1049.687 1046.398 1040.574 1037.604 1036.465 1032.423 1028.083 1021.749 1016.776 1012.909 1009.173 999.516 995.728 995.784 996.696 998.217 1000.896 1002.282 1002.708 1002.099 1000.478 998.127 986.792 987.058 984.219 978.948 974.480 968.885 964.609 963.191 961.006 958.471 955.274 953.069 950.973 949.415 948.616 948.382 948.940 949.494 949.156 949.840 949.974 948.769 948.714 947.523 946.188 943.855 944.588 944.506 940.050 938.589 933.226 932.803 928.129 924.230 920.476 917.999 906.043 910.057 904.890 899.341 889.974 894.154 888.463 871.417 842.658 820.808 799.591 795.554 816.807 818.617 807.189 793.064 792.541 803.704 798.518 782.459 766.072 758.001 756.423 750.125 740.766 735.525 731.837 726.463 721.648 718.456 714.839 712.860 706.944 705.695 712.765 716.959 724.364 735.043 751.645 767.445
-99999.000 -99999.000 -99999.000 -99999.000 -99999.000 -99999.000 -99999.000 -99999.000 -99999.000 -99999.000 -99999.000 -99999.000 -99999.000 -99999.000 -99999.000 -99999.000 -99999.000 -99999.000 -99999.000 -99999.000 -99999.000 -99999.000 -99999.000 -99999.000 -99999.000 -99999.000 -99999.000 -99999.000 -99999.000 -99999.000 -99999.000 -99999.000 -99999.000 -99999.000 -99999.000 -99999.000 -99999.000 -99999.000 -99999.000 -99999.000 -99999.000 -99999.000 -99999.000 -99999.000 -99999.000 1489.742 1452.916 1426.612 1404.096 1382.932 1365.601 1358.309 1356.633 1348.770 1332.083 1312.938 1293.800 1277.047 1253.707 1223.193 1198.506 1199.889 1197.777 1197.785 1195.111 1194.173 1184.550 1175.538 1162.476 1145.997 1128.240 1109.247 1090.470 1063.949 1048.309 1055.334 1068.072 1072.897 1085.251 1095.140 1108.212 1116.130 1125.676 1138.030 1137.924 1133.877 1130.026 1128.716 1125.441 1121.900 1116.517 1105.334 1091.631 1079.507 1062.500 1054.202 1055.447 1064.689 1061.128 1051.939 1037.405 1027.962 1040.370 1039.307 1037.050 1033.382 1033.558 1033.089 1029.986 1028.146 1022.029 1017.908 1011.446 1002.933 1000.169 991.322 989.227 985.406 989.072 989.326 988.148 989.268 989.750 991.503 991.436 987.198 979.188 979.459 976.934 974.849 969.381 965.146 960.166 957.755 956.174 953.108 950.954 948.783 945.523 946.084 942.628 942.873 942.871 944.599 944.234 942.904 942.907 942.470 942.337 940.415 940.178 938.289 937.938 937.971 935.327 929.326 929.046 920.856 917.266 916.498 909.243 909.435 898.771 899.079 894.686 892.593 882.283 879.146 870.699 861.859 829.797 808.970 792.280 782.490 797.001 800.586 790.842 777.463 778.899 786.523 781.974 771.887 753.384 746.181 749.781 743.500 730.494 724.853 724.095 719.129 717.447 714.343 711.604 706.775 705.180 696.595 699.430 703.711 716.853 731.851 749.970 -99999.000
-99999.000 -99999.000 -99999.000 -99999.000 -99999.000 -99999.000 -99999.000 -99999.000 -99999.000 -99999.000 -99999.000 -99999.000 -99999.000 -99999.000 -99999.000 -99999.000 -99999.000 -99999.000 -99999.000 -99999.000 -99999.000 -99999.000 -99999.000 -99999.000 -99999.000 -99999.000 -99999.000 -99999.000 -99999.000 -99999.000 -99999.000 -99999.000 -99999.000 -99999.000 -99999.000 -99999.000 -99999.000 -99999.000 -99999.000 -99999.000 -99999.000 -99999.000 -99999.000 -99999.000 -99999.000 -99999.000 1449.581 1421.323 1399.815 1376.934 1357.932 1339.745 1333.516 1332.590 1325.124 1308.304 1292.542 1275.074 1252.408 1223.959 1199.215 1178.673 1168.785 1167.688 1170.156 1173.751 1171.156 1164.259 1162.399 1146.339 1127.534 1110.070 1091.007 1066.010 1046.758 1040.661 1049.967 1060.200 1068.292 1080.624 1089.297 1098.540 1111.411 1121.514 1124.849 1122.658 1120.947 1121.802 1120.972 1115.773 1109.182 1096.872 1089.229 1077.323 1065.328 1045.892 1043.965 1048.548 1046.666 1039.430 1025.352 1016.638 1027.923 1028.474 1029.923 1034.029 1033.413 1032.431 1027.909 1021.647 1017.383 1008.575 1004.715 996.851 987.586 986.390 980.601 978.808 983.198 984.666 984.246 981.459 977.106 979.234 979.703 974.740 971.572 972.264 970.478 968.204 964.960 960.436 957.441 952.816 951.014 948.305 945.381 942.476 940.630 939.306 937.766 938.856 937.887 939.243 939.589 937.818 936.603 936.812 935.919 934.417 933.266 932.550 929.348 928.404 926.364 924.012 920.206 917.260 906.819 903.086 900.423 904.149 892.906 888.047 884.204 883.438 874.807 869.383 860.242 841.186 817.816 797.531 777.606 767.854 775.496 785.281 784.112 762.998 759.683 766.003 764.877 748.403 741.019 733.757 738.545 734.021 718.290 717.771 713.513 708.302 706.600 704.761 704.666 702.231 701.258 696.860 690.351 702.021 709.212 723.937 742.993 -99999.000
-99999.000 -99999.000 -99999.000 -99999.000 -99999.000 -99999.000 -99999.000 -99999.000 -99999.000 -99999.000 -99999.000 -99999.000 -99999.000 -99999.000 -99999.000 -99999.000 -99999.000 -99999.000 -99999.000 -99999.000 -99999.000 -99999.000 -99999.000 -99999.000 -99999.000 -99999.000 -99999.000 -99999.000 -99999.000 -99999.000 -99999.000 -99999.000 -99999.000 -99999.000 -99999.000 -99999.000 -99999.000 -99999.000 -99999.000 -99999.000 -99999.000 -99999.000 -99999.000 -99999.000 -99999.000 -99999.000 -99999.000 1417.567 1394.601 1371.069 1352.199 1332.124 1316.466 1310.456 1305.835 1301.321 1285.417 1267.942 1249.145 1235.715 1209.385 1180.293 1160.676 1149.317 1146.698 1150.454 1151.021 1151.470 1146.255 1138.228 1124.203 1107.542 1088.698 1068.293 1048.309 1032.111 1036.172 1042.997 1053.303 1063.798 1071.518 1082.808 1095.812 1103.437 1107.114 1107.394 1111.909 1112.855 1112.113 1110.563 1104.166 1092.194 1077.747 1070.699 1060.358 1044.437 1031.986 1032.897 1033.483 1028.085 1018.472 1012.928 1020.747 1022.868 1028.997 1028.767 1027.182 1023.758 1018.729 1012.619 1006.638 999.792 991.530 986.688 984.557 973.485 972.769 972.876 976.598 975.732 975.120 974.228 972.907 969.647 968.409 966.092 964.629 964.602 963.804 962.050 958.912 955.634 951.878 948.973 945.926 943.591 940.789 937.924 935.490 934.321 933.514 932.833 932.970 934.363 934.193 933.078 931.476 931.012 929.503 928.336 927.445 925.135 921.803 921.141 918.511 915.282 911.997 911.077 900.676 894.024 892.176 897.022 891.475 878.066 871.214 870.386 868.626 864.622 856.675 838.324 812.990 792.941 773.512 753.815 761.206 774.910 772.245 759.569 742.699 747.108 745.020 735.602 724.210 722.983 722.506 717.371 709.260 708.154 706.102 705.783 699.297 699.127 695.855 692.924 693.456 692.079 683.890 689.724 706.712 713.684 729.919 -99999.000
-99999.000 -99999.000 -99999.000 -99999.000 -99999.000 -99999.000 -99999.000 -99999.000 -99999.000 -99999.000 -99999.000 -99999.000 -99999.000 -99999.000 -99999.000 -99999.000 -99999.000 -99999.000 -99999.000 -99999.000 -99999.000 -99999.000 -99999.000 -99999.000 -99999.000 -99999.000 -99999.000 -99999.000 -99999.000 -99999.000 -99999.000 -99999.000 -99999.000 -99999.000 -99999.000 -99999.000 -99999.000 -99999.000 -99999.000 -99999.000 -99999.000 -99999.000 -99999.000 -99999.000 -99999.000 -99999.000 -99999.000 1411.001 1389.360 1370.043 1349.588 1330.025 1311.513 1296.538 1285.828 1282.059 1273.594 1251.051 1228.462 1224.757 1203.631 1184.027 1157.951 1143.502 1131.623 1125.993 1127.298 1131.190 1128.516 1125.613 1120.181 1106.120 1089.324 1070.437 1049.491 1023.662 1026.276 1030.158 1041.430 1050.483 1058.033 1070.856 1076.530 1086.151 1090.937 1094.044 1094.629 1096.784 1099.258 1099.373 1097.046 1088.574 1074.714 1062.539 1054.642 1041.473 1025.374 1021.923 1021.456 1020.902 1007.615 999.827 1012.694 1013.889 1015.865 1017.115 1016.305 1012.208 1006.161 998.185 991.244 987.912 980.110 978.368 974.825 969.156 966.223 966.944 967.335 965.678 963.691 963.061 963.035 959.961 959.011 959.013 958.169 957.252 956.049 955.924 953.326 950.802 947.668 944.163 941.552 939.012 936.745 933.401 931.267 930.244 929.081 928.870 928.680 928.977 929.186 928.468 926.709 924.753 923.798 921.815 920.937 919.040 915.279 914.042 911.878 909.276 904.974 905.258 898.265 887.946 884.078 886.062 884.828 880.896 863.845 864.036 865.367 857.171 854.257 838.518 814.057 790.960 769.165 746.726 747.274 761.487 769.448 762.479 743.200 728.592 723.628 718.674 715.229 710.767 710.318 705.038 699.972 699.784 698.364 695.835 693.227 693.417 689.670 688.754 687.179 684.794 675.744 683.214 705.336 709.042 715.608 -99999.000
-99999.000 -99999.000 -99999.000 -99999.000 -99999.000 -99999.000 -99999.000 -99999.000 -99999.000 -99999.000 -99999.000 -99999.000 -99999.000 -99999.000 -99999.000 -99999.000 -99999.000 -99999.000 -99999.000 -99999.000 -99999.000 -99999.000 -99999.000 -99999.000 -99999.000 -99999.000 -99999.000 -99999.000 -99999.000 -99999.000 -99999.000 -99999.000 -99999.000 -99999.000 -99999.000 -99999.000 -99999.000 -99999.000 -99999.000 -99999.000 -99999.000 -99999.000 -99999.000 -99999.000 -99999.000 -99999.000 -99999.000 -99999.000 1389.984 1373.604 1356.282 1339.065 1320.605 1301.515 1286.837 1275.664 1262.960 1244.035 1219.258 1195.730 1183.077 1170.191 1157.462 1144.025 1130.312 1115.238 1104.640 1107.392 1110.173 1112.904 1111.361 1101.777 1085.776 1067.840 1049.242 1020.890 1017.647 1018.320 1027.633 1034.547 1045.222 1050.596 1065.554 1076.474 1078.421 1081.756 1081.662 1085.289 1087.510 1086.477 1082.903 1080.105 1075.260 1067.545 1051.656 1033.974 1022.160 1018.111 1013.891 1012.948 996.703 987.544 997.994 998.894 999.654 1001.005 1000.517 996.800 989.675 983.844 979.394 975.110 970.639 966.905 966.288 961.664 960.167 960.885 960.462 958.191 955.866 954.445 953.088 952.045 953.639 953.153 952.556 950.884 949.522 949.548 948.068 944.809 942.754 938.894 935.464 934.270 933.207 928.843 927.001 926.361 925.436 924.805 924.600 924.273 924.197 923.801 922.848 920.384 918.806 916.754 915.950 914.598 910.229 909.174 909.280 905.626 898.191 898.801 892.099 883.948 876.497 876.608 881.298 880.394 867.817 852.953 852.115 850.546 842.805 831.234 812.651 789.706 767.987 746.143 734.051 744.078 754.006 749.880 738.310 728.524 717.565 708.645 705.619 704.436 702.553 699.547 694.159 692.436 691.180 688.534 686.776 684.094 681.282 682.224 684.039 677.984 668.126 675.414 692.987 709.539 -99999.000 -99999.000
-99999.000 -99999.000 -99999.000 -99999.000 -99999.000 -99999.000 -99999.000 -99999.000 -99999.000 -99999.000 -99999.000 -99999.000 -99999.000 -99999.000 -99999.000 -99999.000 -99999.000 -99999.000 -99999.000 -99999.000 -99999.000 -99999.000 -99999.000 -99999.000 -99999.000 -99999.000 -99999.000 -99999.000 -99999.000 -99999.000 -99999.000 -99999.000 -99999.000 -99999.000 -99999.000 -99999.000 -99999.000 -99999.000 -99999.000 -99999.000 -99999.000 -99999.000 -99999.000 -99999.000 -99999.000 -99999.000 -99999.000 -99999.000 1387.807 1367.120 1353.984 1342.334 1328.296 1312.853 1297.477 1283.696 1270.808 1249.909 1226.338 1201.660 1180.811 1160.091 1140.867 1132.421 1125.754 1111.528 1098.659 1088.699 1087.036 1095.285 1098.396 1097.029 1085.507 1068.615 1050.340 1025.541 1007.238 1009.581 1011.451 1021.279 1027.944 1041.699 1050.847 1068.104 1070.958 1071.540 1075.178 1076.401 1075.710 1072.336 1071.667 1072.297 1072.977 1065.138 1046.911 1031.367 1011.021 1019.831 1010.914 1005.069 993.866 979.352 982.705 987.348 985.384 984.086 982.330 980.659 976.755 970.668 966.684 962.285 961.052 960.232 960.101 955.163 954.660 954.350 952.955 950.867 949.711 948.018 947.306 947.631 948.343 947.808 946.807 944.848 942.786 943.279 940.870 939.249 937.447 934.624 930.819 928.854 927.031 924.349 923.095 922.419 922.054 921.493 920.037 920.414 920.247 920.163 919.839 918.359 915.467 912.802 911.491 911.858 906.874 898.804 900.148 898.603 891.849 892.211 890.315 884.256 872.081 869.239 870.204 871.972 869.683 857.522 837.625 836.739 836.458 815.066 798.326 781.035 761.483 744.078 727.992 728.801 742.783 741.230 734.004 726.471 719.143 707.306 697.078 693.870 693.096 692.188 694.258 687.179 683.832 682.491 679.979 677.929 676.057 677.038 678.430 670.835 665.558 674.277 694.383 712.367 -99999.000 -99999.000
-99999.000 -99999.000 -99999.000 -99999.000 -99999.000 -99999.000 -99999.000 -99999.000 -99999.000 -99999.000 -99999.000 -99999.000 -99999.000 -99999.000 -99999.000 -99999.000 -99999.000 -99999.000 -99999.000 -99999.000 -99999.000 -99999.000 -99999.000 -99999.000 -99999.000 -99999.000 -99999.000 -99999.000 -99999.000 -99999.000 -99999.000 -99999.000 -99999.000 -99999.000 -99999.000 -99999.000 -99999.000 -99999.000 -99999.000 -99999.000 -99999.000 -99999.000 -99999.000 -99999.000 -99999.000 -99999.000 -99999.000 -99999.000 -99999.000 1367.705 1349.975 1330.177 1317.040 1307.303 1294.867 1279.577 1267.337 1250.974 1235.367 1222.027 1189.104 1164.745 1145.506 1125.026 1110.561 1097.724 1090.076 1081.250 1073.536 1073.722 1076.961 1083.060 1081.132 1066.043 1042.439 1021.928 1001.158 1001.424 1000.161 1005.398 1017.141 1026.116 1041.657 1060.730 1066.172 1064.505 1067.533 1067.214 1062.879 1058.585 1057.663 1054.386 1055.711 1045.769 1029.256 1015.410 1005.825 1012.587 1004.440 999.257 988.775 972.990 969.633 977.851 978.073 975.033 972.036 967.903 963.502 960.350 957.814 955.262 952.844 953.011 952.769 947.005 949.881 949.322 947.566 945.382 944.635 944.195 943.917 943.670 943.810 943.474 941.326 938.724 936.434 935.899 934.411 934.036 931.746 929.467 927.284 924.532 923.117 920.850 920.146 919.651 918.508 917.337 916.195 916.137 916.151 916.885 917.928 917.470 915.085 913.816 900.180 898.539 899.349 894.307 889.917 889.309 888.818 887.025 882.056 874.828 871.179 864.165 861.727 863.878 863.603 855.072 834.747 823.071 822.823 819.149 800.035 785.779 765.614 744.798 729.954 713.912 727.376 728.761 723.697 710.918 703.717 696.762 692.000 692.336 692.459 692.352 692.088 684.658 680.104 676.539 674.310 672.509 670.369 668.682 666.837 660.852 670.573 682.568 700.267 710.174 -99999.000 -99999.000
-99999.000 -99999.000 -99999.000 -99999.000 -99999.000 -99999.000 -99999.000 -99999.000 -99999.000 -99999.000 -99999.000 -99999.000 -99999.000 -99999.000 -99999.000 -99999.000 -99999.000 -99999.000 -99999.000 -99999.000 -99999.000 -99999.000 -99999.000 -99999.000 -99999.000 -99999.000 -99999.000 -99999.000 -99999.000 -99999.000 -99999.000 -99999.000 -99999.000 -99999.000 -99999.000 -99999.000 -99999.000 -99999.000 -99999.000 -99999.000 -99999.000 -99999.000 -99999.000 -99999.000 -99999.000 -99999.000 -99999.000 -99999.000 -99999.000 -99999.000 1347.299 1331.007 1311.876 1292.964 1277.141 1266.917 1257.637 1243.675 1231.981 1221.173 1201.666 1180.249 1154.655 1138.419 1125.236 1111.224 1103.433 1086.975 1072.331 1060.260 1060.986 1061.714 1067.773 1063.277 1048.182 1023.018 1003.907 991.029 989.784 994.366 1005.773 1022.984 1040.615 1053.368 1061.714 1058.483 1059.097 1056.393 1048.436 1042.594 1038.245 1032.948 1031.885 1025.756 1018.066 1009.954 995.496 998.570 995.034 989.854 979.508 966.005 962.097 967.253 969.091 964.629 960.836 957.472 955.151 954.386 952.790 950.127 948.585 947.648 946.577 946.384 945.648 945.465 942.379 940.391 940.579 940.821 940.673 940.355 939.580 938.552 936.499 933.849 930.560 930.260 928.132 927.957 926.429 924.914 923.133 920.387 918.858 919.563 916.928 916.895 914.957 913.118 912.169 912.194 912.545 913.898 914.972 914.524 911.970 903.333 893.759 888.478 887.861 886.998 884.158 884.237 883.487 879.244 877.290 868.440 862.466 860.248 858.173 853.660 848.209 840.631 830.148 814.522 799.095 798.228 783.604 769.505 757.178 744.874 729.300 713.607 705.505 709.375 703.878 693.853 689.209 688.452 688.806 689.194 692.284 692.308 692.069 681.728 672.598 670.085 668.300 666.878 665.858 663.555 648.639 665.586 677.738 684.287 698.238 708.261 -99999.000 -99999.000
-99999.000 -99999.000 -99999.000 -99999.000 -99999.000 -99999.000 -99999.000 -99999.000 -99999.000 -99999.000 -99999.000 -99999.000 -99999.000 -99999.000 -99999.000 -99999.000 -99999.000 -99999.000 -99999.000 -99999.000 -99999.000 -99999.000 -99999.000 -99999.000 -99999.000 -99999.000 -99999.000 -99999.000 -99999.000 -99999.000 -99999.000 -99999.000 -99999.000 -99999.000 -99999.000 -99999.000 -99999.000 -99999.000 -99999.000 -99999.000 -99999.000 -99999.000 -99999.000 -99999.000 -99999.000 -99999.000 -99999.000 -99999.000 -99999.000 -99999.000 1344.947 1325.910 1307.187 1292.192 1275.067 1258.157 1241.513 1234.320 1223.801 1214.479 1199.760 1183.960 1169.523 1158.655 1147.557 1129.427 1117.388 1100.916 1084.032 1060.333 1047.633 1047.542 1051.818 1050.812 1047.140 1033.108 1013.736 991.716 978.823 982.006 992.101 1011.905 1030.830 1045.242 1054.241 1055.358 1046.306 1037.314 1029.047 1025.623 1021.928 1017.998 1014.726 1011.935 1005.371 1002.737 986.632 982.661 981.019 979.723 968.363 957.528 955.143 952.737 956.490 955.230 951.250 949.296 947.946 946.030 945.670 942.072 940.071 941.112 940.971 939.467 940.666 940.577 939.602 936.904 939.109 937.926 936.309 935.762 935.336 934.306 933.420 928.085 925.926 922.643 922.370 922.079 921.223 919.741 919.533 917.999 916.075 915.322 913.251 913.150 911.313 908.999 908.281 908.574 903.364 907.509 905.345 903.713 897.736 891.584 886.845 885.111 881.078 879.093 880.211 877.946 877.955 873.307 867.592 863.524 859.493 854.003 851.993 841.421 833.068 826.864 819.582 802.090 785.511 780.420 771.184 761.780 748.555 734.015 716.984 704.974 699.214 694.675 689.994 686.283 680.759 675.735 673.102 673.778 685.880 688.365 686.700 678.327 669.664 666.275 663.176 662.455 661.955 659.260 648.708 668.841 675.313 689.049 700.247 -99999.000 -99999.000 -99999.000
-99999.000 -99999.000 -99999.000 -99999.000 -99999.000 -99999.000 -99999.000 -99999.000 -99999.000 -99999.000 -99999.000 -99999.000 -99999.000 -99999.000 -99999.000 -99999.000 -99999.000 -99999.000 -99999.000 -99999.000 -99999.000 -99999.000 -99999.000 -99999.000 -99999.000 -99999.000 -99999.000 -99999.000 -99999.000 -99999.000 -99999.000 -99999.000 -99999.000 -99999.000 -99999.000 -99999.000 -99999.000 -99999.000 -99999.000 -99999.000 -99999.000 -99999.000 -99999.000 -99999.000 -99999.000 -99999.000 -99999.000 -99999.000 -99999.000 -99999.000 -99999.000 1324.058 1306.442 1289.708 1272.907 1256.863 1240.567 1223.512 1211.114 1201.372 1187.793 1179.343 1168.287 1158.510 1149.034 1141.744 1122.864 1103.465 1084.485 1065.016 1049.464 1033.841 1034.360 1038.394 1035.251 1033.529 1024.518 1009.746 988.013 969.782 975.074 998.164 1015.286 1034.939 1038.883 1037.913 1028.678 1027.444 1015.456 1013.698 1006.217 1001.378 996.983 994.287 994.701 990.156 985.662 984.301 978.862 964.928 955.859 948.877 948.616 946.618 943.660 947.208 945.254 942.497 941.820 938.927 936.882 934.182 934.487 934.540 934.729 931.621 933.935 934.973 935.317 934.139 933.442 933.481 930.664 930.105 931.206 930.596 928.172 923.795 920.985 916.889 916.453 917.271 918.130 916.238 914.616 914.454 910.387 910.246 909.299 907.239 905.939 904.674 901.112 899.073 897.961 893.558 891.862 889.723 886.744 885.690 880.718 881.432 880.748 871.555 870.615 872.071 871.771 868.786 865.998 861.790 856.903 845.350 839.624 820.309 811.248 806.915 805.723 793.688 775.027 756.835 757.470 745.908 737.477 712.588 702.992 697.612 694.873 687.994 683.619 677.795 671.710 667.270 667.619 666.152 665.899 668.188 671.216 671.680 664.918 662.773 660.446 658.486 657.664 647.001 650.707 666.674 688.885 707.412 722.416 -99999.000 -99999.000 -99999.000
-99999.000 -99999.000 -99999.000 -99999.000 -99999.000 -99999.000 -99999.000 -99999.000 -99999.000 -99999.000 -99999.000 -99999.000 -99999.000 -99999.000 -99999.000 -99999.000 -99999.000 -99999.000 -99999.000 -99999.000 -99999.000 -99999.000 -99999.000 -99999.000 -99999.000 -99999.000 -99999.000 -99999.000 -99999.000 -99999.000 -99999.000 -99999.000 -99999.000 -99999.000 -99999.000 -99999.000 -99999.000 -99999.000 -99999.000 -99999.000 -99999.000 -99999.000 -99999.000 -99999.000 -99999.000 -99999.000 -99999.000 -99999.000 -99999.000 -99999.000 -99999.000 -99999.000 1303.300 1285.882 1268.142 1252.586 1238.422 1223.514 1206.345 1191.975 1179.067 1165.893 1155.641 1149.136 1144.168 1135.856 1122.079 1106.933 1090.787 1079.778 1062.271 1044.969 1023.798 1018.460 1020.360 1023.850 1023.671 1015.959 996.751 977.343 964.275 981.965 1003.763 1021.882 1030.123 1029.146 1017.781 1012.887 1007.818 1001.849 1001.112 988.971 985.609 981.958 979.116 978.533 981.906 981.044 976.402 964.452 946.502 943.996 942.586 939.639 936.277 940.451 939.953 936.917 936.811 935.080 931.829 929.024 928.765 929.715 929.280 926.242 928.477 929.334 929.941 929.810 924.654 923.960 924.453 925.800 924.784 919.589 918.146 917.279 915.933 911.943 910.172 913.055 912.799 912.215 909.422 905.557 905.898 904.419 904.304 902.394 901.060 895.433 894.455 889.573 886.651 886.618 882.725 884.242 879.475 877.652 877.440 878.620 878.104 870.392 862.189 864.777 865.728 865.328 863.061 859.182 849.523 834.651 817.835 801.248 788.314 788.387 786.907 781.220 770.715 750.226 741.529 730.483 722.541 703.278 694.723 688.414 687.251 684.020 678.753 672.839 667.461 663.351 660.805 659.557 658.034 655.669 652.954 655.093 663.223 663.087 659.159 655.488 654.592 638.932 654.543 672.318 694.454 715.493 730.379 -99999.000 -99999.000 -99999.000
-99999.000 -99999.000 -99999.000 -99999.000 -99999.000 -99999.000 -99999.000 -99999.000 -99999.000 -99999.000 -99999.000 -99999.000 -99999.000 -99999.000 -99999.000 -99999.000 -99999.000 -99999.000 -99999.000 -99999.000 -99999.000 -99999.000 -99999.000 -99999.000 -99999.000 -99999.000 -99999.000 -99999.000 -99999.000 -99999.000 -99999.000 -99999.000 -99999.000 -99999.000 -99999.000 -99999.000 -99999.000 -99999.000 -99999.000 -99999.000 -99999.000 -99999.000 -99999.000 -99999.000 -99999.000 -99999.000 -99999.000 -99999.000 -99999.000 -99999.000 -99999.000 -99999.000 -99999.000 1278.764 1260.679 1249.824 1232.665 1219.243 1203.771 1185.246 1168.358 1162.321 1154.845 1141.164 1124.027 1115.345 1110.984 1104.182 1093.019 1082.535 1070.953 1054.439 1037.527 1018.847 1002.924 1014.014 1010.754 1002.889 990.326 975.350 957.226 970.015 994.913 1015.732 1022.619 1022.404 1013.715 1001.825 999.034 993.614 992.672 982.932 977.718 973.018 968.428 972.881 974.479 968.140 959.871 943.729 934.719 939.408 938.893 934.044 931.877 935.708 936.405 932.100 930.980 928.905 925.587 923.979 924.547 924.501 924.076 923.236 923.608 923.679 923.509 922.419 919.217 915.804 917.008 915.925 914.029 911.879 911.654 910.070 908.678 907.823 904.806 905.358 902.410 905.678 905.159 903.874 898.251 899.131 896.634 894.768 891.399 892.279 884.010 881.517 879.647 878.486 876.545 875.583 873.006 873.245 872.722 873.599 871.011 869.967 865.279 856.304 858.086 861.253 858.790 847.850 831.328 820.838 811.452 788.662 766.311 762.164 762.114 759.596 753.670 748.398 723.877 712.593 703.723 691.812 686.811 682.516 679.303 676.217 673.159 668.197 664.093 659.803 656.300 654.328 653.485 651.695 648.222 646.473 651.169 656.150 651.934 651.051 647.244 639.999 656.878 675.258 691.035 706.140 720.377 -99999.000 -99999.000 -99999.000
-99999.000 -99999.000 -99999.000 -99999.000 -99999.000 -99999.000 -99999.000 -99999.000 -99999.000 -99999.000 -99999.000 -99999.000 -99999.000 -99999.000 -99999.000 -99999.000 -99999.000 -99999.000 -99999.000 -99999.000 -99999.000 -99999.000 -99999.000 -99999.000 -99999.000 -99999.000 -99999.000 -99999.000 -99999.000 -99999.000 -99999.000 -99999.000 -99999.000 -99999.000 -99999.000 -99999.000 -99999.000 -99999.000 -99999.000 -99999.000 -99999.000 -99999.000 -99999.000 -99999.000 -99999.000 -99999.000 -99999.000 -99999.000 -99999.000 -99999.000 -99999.000 -99999.000 -99999.000 1275.792 1257.187 1237.698 1220.960 1210.793 1201.375 1184.917 1168.859 1150.751 1137.405 1133.200 1125.459 1110.469 1093.779 1090.956 1087.725 1077.928 1070.373 1056.573 1040.900 1024.965 1012.032 994.524 1006.302 1006.788 990.168 965.732 952.563 972.368 994.988 1008.050 1014.936 1014.687 1004.901 995.111 990.678 987.733 981.987 977.674 970.622 965.222 957.080 955.542 952.606 946.519 942.280 929.510 928.274 936.021 935.535 932.763 925.437 923.009 928.340 926.760 925.565 922.665 921.357 920.227 919.255 918.701 919.913 918.868 916.435 920.305 918.571 915.505 914.080 911.031 910.685 909.245 907.506 906.483 904.779 903.675 901.727 901.192 899.431 898.662 898.663 899.060 899.016 897.058 892.898 889.562 886.681 875.706 883.570 882.155 876.131 875.779 876.320 877.020 871.975 869.242 869.200 868.317 868.339 868.416 867.710 867.369 865.404 861.202 848.168 851.559 841.431 832.328 811.187 809.042 795.669 785.566 762.319 741.448 739.768 736.185 737.097 735.106 723.356 707.170 696.318 687.770 680.205 675.469 671.201 669.611 666.501 662.984 659.141 654.968 651.744 650.032 649.457 647.383 644.796 643.071 643.406 644.115 644.410 641.720 637.146 643.971 650.830 665.313 678.305 691.597 -99999.000 -99999.000 -99999.000 -99999.000
